-16.1073 -11.291 -0.695399
-16.0959 -11.3023 -1.00035
-16.0325 -11.3764 -0.952864
-16.2553 -11.2044 -1.33311
-14.936 -12.6922 -2.52574
-20.084 -9.91645 0.228133
-19.9794 -9.93712 0.187806
-18.4079 -9.73643 0.472331
-19.4078 -10.218 0.089417
-19.7914 -10.1591 -0.305202
-19.8425 -10.135 -0.337508
-19.7046 -10.1439 -0.28922
-20.1585 -10.1012 -0.857199
-17.7062 -10.0542 0.286652
-19.3359 -10.3636 -0.713111
-19.7974 -10.3876 -1.58932
-16.3019 -10.6932 0.475855
-17.072 -10.7919 -0.00377208
-16.9417 -10.8202 -0.174467
-17.6054 -10.8432 -0.673423
-16.7744 -10.7825 -0.169701
-17.0505 -10.8261 -0.564655
-19.1296 -10.8585 -2.34957
-16.1308 -11.3273 -2.16926
-15.5925 -8.45416 1.2259
-16.5165 -8.59595 0.677794
-16.1266 -8.73462 0.8986
-19.3181 -10.2267 0.143687
-16.2702 -8.73397 0.63628
-20.445 -9.97651 -1.04029
-20.4462 -9.98788 -1.05174
-15.8939 -8.82398 0.842193
-17.7166 -10.055 0.321072
-15.6932 -8.96283 0.675497
-15.4894 -9.04254 0.57615
-18.5525 -10.1658 -0.860663
-16.2345 -10.7032 0.499225
-16.3101 -10.7285 0.294732
-17.2512 -10.7794 -0.334359
-17.2505 -10.716 -0.498264
-17.5668 -10.8492 -0.682029
-17.1502 -10.7876 -0.524502
-17.0583 -10.8972 -0.687748
-19.1645 -10.8031 -2.39268
-16.1299 -11.2402 -0.331296
-18.9164 -10.9595 -2.34226
-16.1555 -11.2958 -0.682152
-16.1485 -11.2638 -0.877672
-16.1517 -11.248 -0.87419
-17.5973 -10.9468 -2.54114
-15.6222 -11.7915 -0.901751
-16.2324 -8.75253 0.684103
-15.4687 -9.07898 0.630938
-16.7055 -10.463 0.444939
-16.4862 -10.6019 0.347281
-18.9715 -10.67 -1.25716
-15.9437 -10.8716 0.3469
-16.1334 -11.2789 -0.79594
-16.2573 -11.2515 -0.991379
-19.3428 -10.4592 -0.773384
-16.616 -10.5063 0.558981
-18.1245 -10.6042 -0.335149
-16.1319 -11.3107 -1.02102
-15.616 -11.7571 -0.828456
-15.3235 -12.5108 -2.6218
-18.3003 -9.8266 0.255829
-17.6329 -10.1287 0.325431
-16.6345 -11.2152 -1.24435
-16.4322 -10.9003 -0.140438
-15.6479 -11.6416 -0.593174
-20.4369 -9.6435 0.858852
-20.3382 -9.66016 0.858592
-19.718 -9.88049 1.07276
-16.74 -8.54983 0.82909
-19.8681 -9.84473 0.864745
-19.8565 -9.82828 0.864808
-16.0719 -8.71033 0.849581
-15.728 -8.92696 0.779245
-19.6068 -10.1068 0.259532
-15.3951 -9.10531 0.669368
-18.3204 -9.84824 0.25209
-15.4032 -9.12307 0.614754
-18.1853 -9.84399 0.280786
-18.0689 -9.94291 0.283093
-17.8777 -10.0092 0.258746
-19.8248 -10.1029 -0.316846
-19.7712 -10.1479 -0.365924
-19.5451 -10.2808 -0.373528
-19.8071 -10.1308 -0.58916
-20.6362 -9.89941 -1.07865
-17.6308 -10.7431 -0.112529
-19.3775 -10.3862 -0.718733
-20.1375 -10.1193 -1.04182
-19.2998 -10.4051 -0.711881
-18.0307 -10.6456 -0.416829
-19.2632 -10.4636 -0.816005
-20.4575 -10.011 -1.27739
-20.4665 -10.0911 -1.30359
-17.777 -10.6281 -0.497535
-16.8291 -10.8299 -0.181828
-17.7577 -10.6674 -0.527848
-20.3323 -10.0976 -1.47063
-20.3113 -10.1416 -1.47002
-17.3155 -10.7485 -0.499516
-20.3555 -10.1475 -1.6031
-20.3961 -10.1123 -1.59804
-18.133 -10.6655 -0.929919
-20.4129 -10.1122 -1.70011
-19.8329 -10.3468 -1.59322
-18.1505 -10.6648 -1.02813
-17.1593 -10.8185 -0.742882
-19.2826 -10.6469 -1.57422
-18.8856 -10.7525 -1.56156
-19.4951 -10.5971 -1.83961
-20.3732 -10.3008 -2.20767
-20.3592 -10.2401 -2.18075
-19.0892 -10.7161 -1.85484
-18.7827 -10.851 -1.74414
-20.1152 -10.3175 -2.27247
-19.7834 -10.5073 -2.13465
-19.8288 -10.463 -2.15549
-20.389 -10.309 -2.41957
-18.9703 -10.838 -2.05162
-17.5608 -11.0388 -1.61689
-18.7344 -10.9032 -2.0823
-19.3296 -10.7353 -2.39572
-16.8769 -11.1184 -1.54856
-17.2711 -10.9348 -2.27181
-17.137 -10.8858 -2.30803
-18.0813 -11.3422 -2.82974
-16.1714 -11.266 -2.17809
-16.0354 -11.3289 -2.16709
-16.845 -11.1536 -2.54096
-19.9417 -9.77964 1.1597
-16.1499 -8.74268 0.894665
-16.0964 -8.73962 0.902078
-16.5921 -8.56515 0.726494
-19.8613 -9.91215 0.707288
-19.5271 -10.0883 0.625994
-15.6744 -8.99665 0.71962
-20.3785 -9.76013 0.0790689
-19.6712 -10.0526 0.191523
-19.3343 -10.2161 0.309704
-15.5331 -9.07166 0.556701
-18.2344 -9.84477 0.320434
-20.3993 -9.86036 -0.320086
-16.9739 -10.4623 0.194976
-20.0809 -10.151 -0.988121
-20.1 -10.1309 -1.0116
-19.3279 -10.4465 -0.828453
-19.5041 -10.4147 -0.935498
-17.0825 -10.7937 -0.231227
-20.3689 -10.0702 -1.2675
-20.0339 -10.2525 -1.47079
-15.9818 -11.2474 -0.155595
-18.9464 -10.6403 -1.30669
-17.8852 -10.7534 -0.967191
-17.0632 -10.874 -0.737903
-17.1573 -10.8225 -1.04023
-20.2448 -10.3168 -2.17837
-15.9964 -11.3492 -0.744662
-18.6245 -10.9752 -1.77537
-15.9742 -11.3874 -0.995553
-18.9213 -10.9142 -2.14102
-18.9274 -10.8965 -2.24494
-19.1379 -10.8665 -2.51179
-17.2558 -10.8689 -2.07794
-16.3888 -11.3992 -1.91114
-16.1526 -11.3207 -2.05756
-16.5584 -11.302 -2.55012
-15.4035 -12.5561 -2.72354
-15.1476 -12.6537 -2.68626
-15.0667 -12.6995 -2.90693
-15.1599 -12.7127 -3.03522
-19.8412 -10.0061 0.414264
-18.4932 -9.68069 0.462019
-19.6323 -10.0889 0.261138
-19.5316 -10.1664 0.17821
-17.9481 -9.93133 0.444272
-19.356 -10.2535 0.163843
-17.1674 -10.3339 0.260388
-19.8089 -10.1874 -0.554399
-19.786 -10.1786 -0.549922
-16.0425 -10.7627 0.540353
-20.1671 -10.1144 -0.99178
-17.0928 -10.7516 -0.0540923
-19.6496 -10.3328 -0.914612
-19.355 -10.4104 -0.838054
-16.9349 -10.8203 -0.15881
-16.9966 -10.8071 -0.231221
-16.665 -10.7819 -0.203054
-19.3311 -10.5221 -1.0044
-17.8093 -10.7288 -0.667045
-17.1373 -10.8408 -0.536708
-16.1122 -11.2269 -0.33217
-18.7166 -10.7654 -1.26649
-19.6483 -10.4502 -1.62538
-19.396 -10.565 -1.59033
-19.7376 -10.4514 -1.84839
-18.9638 -10.7636 -1.53065
-17.0868 -10.9341 -0.987007
-17.2727 -10.8484 -1.01405
-18.7576 -10.8156 -1.53693
-19.9999 -10.4456 -2.14528
-15.6657 -11.6532 -0.813091
-18.4193 -11.0763 -1.76
-18.4829 -11.0147 -1.82045
-18.9715 -10.8193 -2.06309
-18.5664 -11.0134 -2.06598
-16.2525 -11.1536 -1.28994
-19.5652 -10.6328 -2.43254
-18.8057 -10.9793 -2.46612
-16.3742 -11.3354 -2.5034
-15.1861 -12.61 -2.71113
-15.1512 -12.6502 -2.81393
-19.3785 -10.1067 0.700611
-17.9248 -9.94234 0.44198
-19.4091 -10.2278 0.0814115
-18.0732 -9.97635 0.204398
-18.5936 -10.1191 -0.121931
-17.6876 -10.6798 -0.355562
-16.7644 -10.7749 -0.166615
-16.5794 -10.7839 -0.163257
-17.3135 -10.8068 -1.02173
-18.9152 -10.9206 -2.32979
-16.6043 -11.2867 -2.49776
-19.3009 -10.4071 -0.490514
-16.671 -10.8202 -0.282982
-17.7642 -10.7463 -0.584787
-16.1398 -11.3034 -0.916502
-16.0262 -11.4024 -2.1232
-17.1256 -10.8784 -2.84255
-19.8414 -9.82315 1.15493
-16.2071 -8.71411 0.667154
-19.347 -10.2436 0.17308
-19.3135 -10.3925 -0.315072
-19.4574 -10.3118 -0.612569
-14.7165 -12.9234 -3.05809
-20.3849 -9.55711 0.829935
-20.4744 -9.64244 0.783401
-15.7946 -8.86213 0.92012
-18.5005 -9.85027 0.233464
-17.4924 -10.872 -1.34032
-16.443 -11.3536 -1.86439
-17.724 -10.067 0.238167
-16.5901 -10.4837 0.543817
-17.1123 -10.885 -0.639601
-17.6379 -10.904 -1.41491
-16.5085 -11.2935 -1.92605
-15.0096 -12.7034 -2.69406
-19.6738 -10.6564 -2.53218
-19.6413 -10.4644 -1.84365
-19.4242 -10.5524 -1.60964
-19.7612 -10.4039 -1.60689
-18.792 -10.782 -1.24732
-16.0266 -11.3895 -0.99021
-19.8782 -10.2527 -1.05735
-20.2489 -10.0825 -0.992936
-19.5065 -10.3554 -0.936325
-20.2223 -10.065 -0.94834
-19.8302 -10.2279 -0.955841
-20.0014 -10.1116 -0.657013
-19.8105 -10.1987 -0.644729
-19.9435 -10.1478 -0.642352
-17.8733 -10.707 -0.564243
-16.5336 -10.7727 -0.417556
-19.7415 -10.1738 -0.284472
-20.1041 -9.9808 -0.309452
-19.4109 -10.2684 -0.0809144
-19.7245 -10.1264 0.0132357
-19.8576 -9.98994 0.135983
-20.2868 -9.81683 0.119501
-19.7413 -10.0204 0.297568
-19.8303 -9.99694 0.380787
-16.2055 -10.7393 0.352695
-19.859 -10.0079 0.446559
-19.8766 -10.0161 0.409978
-19.7738 -10.0391 0.427005
-19.6842 -10.091 0.461416
-16.7747 -10.4873 0.437907
-17.4369 -10.1603 0.414555
-17.425 -10.1813 0.417218
-17.8059 -9.98314 0.454565
-17.8546 -9.98863 0.477039
-19.8748 -9.85199 0.628236
-19.4635 -10.0442 0.895189
-19.4677 -10.0743 0.903515
-19.6576 -10.0054 0.882253
-18.4715 -9.58409 0.947249
-18.4112 -9.57091 1.04925
-15.6826 -8.90477 0.779594
-19.7263 -9.63279 1.55107
-19.6285 -9.67928 1.58273
-15.6146 -8.38867 1.24462
-18.7007 -11.0478 -2.51509
-18.9878 -10.9252 -2.47841
-19.1092 -10.8584 -2.44843
-15.8399 -11.5405 -2.24253
-20.1057 -10.4298 -2.37213
-19.8975 -10.3064 -1.49455
-17.8107 -10.8691 -1.32677
-18.578 -10.8641 -1.17737
-19.3132 -10.4649 -0.978492
-15.6742 -11.7011 -0.766022
-19.3437 -10.4532 -0.839433
-20.1707 -10.0792 -0.758205
-19.3384 -10.4134 -0.700941
-15.6493 -11.6395 -0.53609
-15.6956 -11.5999 -0.498461
-18.5901 -10.209 -0.621112
-19.4092 -10.3407 -0.5216
-19.0968 -10.4627 -0.290373
-18.5389 -10.1444 -0.0862356
-19.39 -10.2527 0.189117
-19.1743 -10.3306 0.163496
-19.2795 -10.2875 0.194963
-19.4162 -10.2404 0.215779
-17.4436 -10.4239 0.247908
-16.9949 -10.5158 0.21493
-18.5713 -9.75576 0.223265
-17.0801 -10.3757 0.299741
-19.7576 -10.0622 0.45872
-16.6681 -10.5104 0.535284
-19.8018 -9.88573 1.16565
-19.5603 -9.98079 1.19541
-16.4018 -8.63701 0.785233
-16.0727 -11.2881 -2.81413
-17.8776 -10.7395 -1.91906
-18.5625 -10.9874 -1.84481
-19.5539 -10.5316 -1.59773
-18.5303 -10.1835 -0.929981
-19.4206 -10.3347 -0.23994
-19.2917 -10.3493 -0.263649
-19.2827 -10.3377 -0.244039
-19.2214 -10.3365 -0.123378
-19.3348 -10.2226 0.156688
-19.4002 -10.1375 0.405464
-18.502 -9.69136 0.460137
-19.5091 -10.1246 0.650182
-19.4726 -9.75839 1.49231
-16.4308 -11.3074 -1.63782
-17.7295 -10.852 -1.29926
-19.4681 -10.3762 -0.689386
-19.3712 -10.4164 -0.658417
-19.4312 -10.2608 -0.306854
-19.3566 -10.2344 0.275711
-19.5039 -10.1679 0.305153
-16.4712 -10.6059 0.264633
-20.0984 -9.73407 0.895934
-18.4947 -9.44156 1.26872
-18.4437 -9.50809 1.25976
-16.1597 -8.74179 0.748602
-16.1087 -8.6839 0.90404
-16.3684 -11.2221 -1.30888
-19.2166 -10.4966 -0.896128
-18.4967 -10.1257 -0.0903922
-19.5202 -10.0828 0.413195
-19.4473 -10.0533 0.896439
-19.7232 -9.81664 1.36144
-15.8937 -8.82986 0.764302
-15.8045 -11.6817 -2.36316
-16.0517 -11.3803 -1.93913
-16.1185 -11.3111 -1.31198
-16.9025 -10.985 -1.03301
-19.1992 -10.4695 -0.833978
-17.2229 -10.7467 -0.258796
-18.503 -9.41171 1.27174
-17.1518 -11.0693 -1.41564
-16.658 -11.1745 -1.22756
-16.4544 -11.156 -0.619481
-17.1469 -10.7585 -0.414737
-16.6571 -10.5381 0.216668
-17.154 -11.0554 -2.25137
-16.4115 -11.129 -1.25473
-16.3166 -11.1895 -1.02349
-15.7923 -11.6001 -1.25573
-19.2081 -10.7508 -1.82002
-17.8807 -10.8222 -1.94455
-18.8291 -10.7152 -1.26563
-16.5635 -11.2511 -1.69541
-20.1657 -10.0855 -0.900325
-19.6654 -10.2767 -0.869921
-19.3287 -10.4334 -0.809337
-16.6812 -11.1503 -1.26088
-17.2023 -10.8484 -0.985219
-16.7755 -11.1189 -1.05558
-20.1392 -9.96234 -0.0637068
-19.7194 -10.1301 -0.0472209
-19.8297 -10.0575 0.144889
-19.8945 -9.96175 0.274005
-19.2812 -10.2567 0.185474
-17.5087 -10.7924 -0.142122
-15.6405 -11.6351 -0.510761
-18.3815 -9.80021 0.248625
-16.8774 -10.8055 -0.0489061
-19.5058 -10.1276 0.539354
-19.7921 -9.91091 0.687182
-20.4074 -9.68562 0.805649
-20.4268 -9.65106 0.831153
-20.332 -9.68359 0.904393
-19.9722 -9.80479 0.925054
-17.0193 -10.5236 0.229365
-19.9199 -9.81898 0.896399
-19.5491 -10.0066 0.902613
-19.434 -10.0756 0.887996
-17.0671 -10.3295 0.345187
-20.1352 -9.71604 1.17607
-18.3133 -9.66339 0.779875
-19.5289 -9.95374 1.19853
-18.4748 -9.58869 0.928592
-19.7927 -9.81799 1.41526
-19.3981 -8.96959 1.48002
-16.4854 -8.5735 0.722248
-19.4806 -10.4294 -0.993037
-17.9017 -10.8375 -1.21777
-19.1761 -10.433 -0.66216
-19.1554 -10.5206 -0.646131
-19.1309 -10.462 -0.281658
-19.1284 -10.4123 -0.287769
-16.5664 -11.036 -0.791278
-20.2097 -9.94865 -0.0420173
-19.1684 -10.3118 0.211592
-19.2818 -10.262 0.208496
-15.6813 -11.5847 -0.527093
-19.3521 -10.2356 0.244929
-19.4787 -10.1307 0.43639
-19.4342 -10.1292 0.451923
-19.4623 -10.1702 0.404905
-17.8722 -10.0363 0.192129
-17.1944 -10.2883 0.31209
-19.5945 -9.96793 0.92381
-18.4243 -9.58289 1.0723
-15.5142 -8.51669 1.2498
-18.4156 -11.0322 -1.81947
-19.2067 -10.4169 -0.676698
-19.113 -10.3941 -0.519222
-19.8885 -9.9847 0.292613
-18.5184 -9.74005 0.237425
-17.2394 -10.6156 0.0147059
-17.5171 -10.1693 0.448111
-15.6122 -8.42362 1.23999
-16.8046 -11.1556 -1.26113
-15.8343 -11.7251 -1.35239
-18.2697 -9.77068 0.302114
-17.947 -10.6866 -1.5629
-19.1742 -10.3561 -0.329666
-19.4673 -8.88927 1.43393
-17.7826 -10.8808 -1.47235
-17.6301 -10.7192 -0.396148
-17.1842 -10.8007 -0.239972
-19.3852 -10.1946 0.30109
-16.5541 -11.2625 -1.73597
-19.2728 -10.4238 -0.672134
-19.3214 -10.0531 0.904044
-16.3412 -10.6706 0.332669
-16.9568 -11.0795 -1.59545
-18.8553 -10.1209 -0.0258762
-17.3924 -10.7028 -1.80507
-19.6548 -10.6814 -2.60154
-19.3297 -10.5867 -1.26807
-18.6313 -10.8049 -1.26396
-19.1692 -10.4757 -0.667107
-19.1079 -10.4364 -0.269862
-19.8955 -10.0014 0.292833
-19.2949 -10.1987 0.446701
-17.4564 -10.1498 0.420285
-18.5924 -11.0213 -2.10674
-19.3768 -10.5532 -1.27907
-17.6552 -11.0445 -1.70475
-19.8375 -10.1759 -0.568888
-19.236 -10.4249 -0.695585
-20.3609 -9.76593 0.335938
-17.1082 -10.9309 -1.02013
-19.2458 -10.3131 0.191146
-19.3157 -10.1146 0.89314
-19.4513 -9.98714 1.2361
-17.3468 -10.4134 0.221945
-19.7939 -8.68771 1.42311
-19.1413 -10.4947 -0.664244
-16.8221 -11.1291 -1.25294
-16.6198 -11.2106 -1.31921
-20.0022 -9.89518 0.296661
-19.0668 -10.4067 -0.0661339
-19.66 -10.079 0.410271
-18.512 -9.70159 0.201826
-15.6236 -11.6877 -1.14964
-16.7245 -10.7464 -0.260178
-16.6192 -10.7256 -0.360041
-18.901 -10.9087 -2.37312
-15.4104 -12.529 -2.73095
-17.4965 -10.838 -1.30569
-16.7919 -11.1167 -0.457468
-19.4651 -10.0191 0.922065
-17.4953 -10.8443 -1.36565
-18.5217 -10.2531 -0.186332
-18.5481 -9.48424 1.24788
-19.8133 -10.0483 0.0503844
-16.8022 -11.0212 -0.510875
-16.7961 -11.0602 -1.75141
-18.4486 -10.2074 -0.13341
-19.306 -10.3083 0.0677093
-16.8537 -10.4102 0.442164
-15.9617 -11.2491 -0.231164
-19.9498 -9.9888 0.0604745
-20.0234 -9.96101 0.123369
-20.0889 -9.88231 0.167639
-19.25 -10.4075 -0.252083
-17.5881 -10.7928 -0.368978
-17.0982 -10.787 -0.421205
-16.0533 -11.258 -0.324811
-16.129 -11.1871 -0.0471264
-19.3904 -10.3519 -0.707625
-19.0789 -10.4092 -0.0928519
-19.2371 -10.2546 0.278369
-15.4156 -12.5126 -2.71292
-17.6683 -10.9174 -2.07315
-17.8092 -10.7841 -1.91549
-16.688 -11.1381 -1.20768
-19.9377 -9.95216 0.0794662
-19.9142 -9.97609 0.317076
-19.8175 -9.90042 0.893279
-17.0083 -11.1004 -1.63431
-18.6157 -9.42434 1.26681
-17.0538 -10.9829 -0.922228
-17.1787 -10.7635 -0.589484
-16.7284 -11.0407 -0.570282
-16.7257 -10.9233 -0.360843
-16.6219 -10.7053 -0.34368
-16.2176 -11.2288 -0.687237
-15.9566 -11.422 -0.921067
-19.2014 -10.283 0.256623
-18.6129 -10.0879 -0.950945
-15.6599 -11.7211 -1.10415
-18.0118 -10.7081 -0.770071
-16.5949 -11.0924 -0.619601
-16.7684 -11.2167 -1.72693
-18.2689 -9.63679 0.915375
-16.7248 -11.2671 -1.73793
-19.4726 -10.3336 -0.69573
-16.8081 -11.0807 -0.493488
-20.132 -9.83355 0.21149
-20.1106 -9.85777 0.212529
-18.2583 -9.67876 0.924877
-17.1137 -10.8088 -0.428688
-16.4956 -8.57686 0.747639
-16.1388 -11.2541 -0.718345
-15.8022 -11.6428 -0.751057
-19.3489 -10.4837 -1.26002
-19.9108 -9.93252 0.330262
-17.1849 -10.7497 -0.243518
-17.2021 -10.7082 -0.185905
-16.0862 -11.1907 -0.246645
-19.6179 -10.1241 0.0672776
-18.5862 -10.1178 -0.97467
-16.6675 -11.1374 -1.26421
-16.1115 -11.306 -0.682011
-16.1621 -11.2944 -0.604843
-19.9397 -9.87408 0.336437
-18.2167 -9.83801 0.298541
-16.0893 -11.3523 -0.793229
-18.3082 -9.66084 0.958149
-17.3213 -10.4313 0.162748
-16.4887 -11.2037 -1.32859
-17.7103 -10.8946 -2.15796
-18.6503 -10.0504 -0.067781
-18.2731 -10.4405 -0.876799
-17.3592 -10.8617 -2.43519
-20.3886 -10.2599 -2.28083
-20.38 -10.2236 -2.08287
-20.1187 -9.91021 0.0696099
-20.1208 -9.9151 0.102601
-20.1044 -9.83093 0.221842
-19.9528 -9.89814 0.20828
-19.2489 -10.7467 -2.16866
-19.1129 -10.4548 -0.356189
-18.6572 -11.0994 -2.53138
-16.8401 -11.1639 -1.64668
-16.0892 -11.2122 -0.216155
-15.9279 -11.3476 -0.659058
-19.8109 -10.2098 -0.548612
-19.3353 -10.5156 -1.02018
-18.6662 -11.0451 -2.41953
-18.0879 -11.3177 -2.64632
-17.1905 -10.8361 -0.628748
-19.3859 -10.4997 -1.08762
-16.151 -11.1553 -0.057661
-18.3865 -10.9904 -1.59592
-17.1476 -10.8927 -2.20349
-16.1081 -11.3272 -0.819063
-15.9848 -11.2222 -0.00125203
-20.2342 -9.88832 0.0670739
-18.6 -9.64569 0.480428
-18.5532 -9.64793 0.482405
-15.4037 -11.7353 -1.79702
-15.7975 -11.6397 -0.766761
-20.0566 -9.91895 0.0875466
-19.9771 -10.001 -0.150169
-19.1665 -10.4231 -0.371326
-16.9884 -11.0143 -1.68246
-18.5764 -10.1065 0.00439242
-18.7908 -10.4086 -0.565014
-20.3126 -10.2037 -1.84813
-20.1586 -9.89171 0.164611
-19.9216 -10.0157 0.0776453
-18.9421 -10.8036 -1.95727
-17.1985 -10.7166 -0.341374
-16.1951 -11.289 -0.968663
-15.8205 -11.8165 -1.61061
-20.3876 -10.1926 -1.96701
-20.3376 -10.2017 -1.88481
-19.9556 -9.97393 0.0672667
-19.8127 -10.383 -1.69377
-17.8244 -10.6822 -0.0980646
-17.0233 -10.9113 -0.531038
-16.665 -11.1725 -1.23334
-15.9649 -11.2795 -0.463027
-15.5259 -11.7754 -1.8159
-14.9414 -12.6743 -2.47267
-20.4557 -10.0276 -1.19824
-20.0801 -9.93297 0.0190108
-19.4934 -10.534 -1.62778
-17.1981 -10.7594 -1.94166
-15.9834 -11.3753 -1.41618
-15.8227 -11.6569 -0.682986
-20.0035 -9.92028 0.218552
-19.8233 -10.3951 -1.81874
-19.7716 -10.4013 -1.76332
-19.1976 -10.3729 -0.408566
-16.9841 -11.0694 -1.54644
-20.236 -9.87377 -0.00379514
-18.6104 -10.8614 -1.34199
-16.139 -11.2428 -0.470467
-17.2535 -10.7813 -1.23931
-16.1633 -11.2815 -1.18728
-17.9063 -10.7235 -1.65539
-16.9751 -10.8948 -0.430627
-16.8248 -10.9785 -0.926072
-16.2419 -11.2433 -0.89163
-17.0387 -11.0376 -1.28885
-15.7422 -11.6147 -0.230645
-16.9111 -11.0086 -0.643019
-20.1461 -9.89983 0.195408
-20.1334 -9.94382 0.0715126
-20.0981 -9.89995 0.111586
-19.9307 -9.97606 0.171082
-20.3562 -10.1913 -1.90177
-20.3543 -10.1948 -1.88938
-20.1075 -10.118 -0.957933
-19.1471 -10.7682 -1.87917
-19.1052 -10.7584 -2.07317
-18.9723 -10.8049 -1.92906
-18.9734 -10.8344 -1.96672
-17.2627 -10.6891 -0.192997
-16.5182 -11.287 -1.63928
-16.2555 -11.2819 -2.26901
-15.1071 -12.658 -2.73102
-14.9829 -12.7023 -2.76285
-19.8142 -10.4524 -1.85896
-19.8222 -10.5339 -2.27788
-19.5892 -10.6942 -2.54185
-17.1232 -10.7957 -0.221953
-16.2164 -11.2969 -1.00225
-15.9642 -11.3202 -0.4336
-15.7167 -11.6089 -0.348269
-20.4537 -10.0359 -1.07825
-20.2091 -10.19 -1.57944
-19.7811 -10.1547 -0.457993
-19.732 -10.1966 -0.412106
-19.3737 -10.4854 -1.03447
-18.8317 -10.8738 -1.84069
-17.8776 -10.6647 -0.193013
-17.292 -10.7701 -0.467472
-16.1865 -11.2727 -0.889425
-16.0827 -11.3721 -2.16656
-20.4893 -9.96735 -1.19012
-19.8023 -9.92242 0.697049
-19.2713 -10.3867 -0.402266
-19.3505 -10.535 -1.20773
-17.2745 -10.8784 -2.31862
-16.1735 -11.2848 -2.22603
-16.056 -11.3606 -2.14643
-15.7509 -11.6895 -1.08776
-15.6484 -11.7218 -1.03195
-19.406 -10.5115 -1.16432
-15.709 -11.714 -0.916723
-14.7467 -12.8989 -3.14734
-17.3488 -10.8298 -0.972579
-16.5141 -11.1794 -0.827968
-16.2255 -11.323 -2.12702
-15.7241 -11.6489 -0.548787
-20.1259 -9.88273 0.0357645
-19.9598 -9.93716 0.221646
-20.4699 -10.0562 -1.11906
-20.0454 -10.134 -0.924301
-20.1221 -10.1342 -0.990166
-20.3249 -10.1891 -1.87862
-20.3435 -10.1888 -1.89095
-19.7562 -10.4197 -1.59934
-19.7692 -10.453 -1.8793
-16.1978 -8.7714 0.567182
-18.6534 -10.8286 -1.27753
-18.8273 -10.8429 -1.7887
-18.914 -10.8547 -2.13933
-19.0479 -10.935 -2.49525
-17.6495 -10.7696 -0.102352
-18.6416 -11.0678 -2.51063
-18.6767 -11.131 -2.65496
-17.1475 -10.7732 -0.28175
-16.9792 -11.0086 -2.24409
-16.1116 -11.266 -0.23981
-16.0919 -11.2442 -0.554386
-20.1149 -9.8736 0.289589
-20.056 -9.91174 0.141007
-20.5795 -10.0579 -1.60155
-19.1218 -10.7463 -1.85248
-17.5016 -10.154 0.397382
-17.0942 -10.7892 -0.175703
-17.2856 -10.7811 -0.706216
-17.2617 -10.8235 -0.742986
-17.2792 -10.8355 -1.01125
-15.4713 -9.06255 0.62216
-16.1795 -11.3006 -1.01813
-15.4959 -11.7285 -2.07353
-19.7916 -9.8908 0.711282
-19.8681 -10.2752 -1.11144
-20.0638 -10.2456 -1.62247
-19.6553 -10.4708 -1.94125
-17.2056 -10.7254 -0.0869848
-17.9074 -10.7112 -1.58729
-17.1546 -10.7216 -0.0323469
-17.1323 -10.691 -0.139896
-17.2185 -10.8238 -0.603847
-17.1742 -10.8538 -0.644704
-17.2848 -10.8043 -0.951438
-17.2372 -10.8194 -0.854594
-16.0841 -11.1652 -0.0619863
-16.1685 -11.2706 -0.594045
-16.2108 -11.249 -0.88315
-15.7494 -11.6778 -0.952982
-15.701 -11.698 -0.954293
-20.1316 -9.89912 0.247264
-20.3213 -10.2604 -2.21134
-18.3316 -10.4313 -0.211019
-16.9988 -10.7761 -0.129652
-17.1183 -10.7901 -0.472808
-17.1642 -10.9023 -2.2108
-16.4371 -11.3652 -1.80979
-15.5235 -11.777 -1.79842
-16.6238 -11.2562 -1.84756
-19.9576 -9.98776 -0.0221031
-20.4841 -10.0031 -1.11488
-20.5181 -10.016 -1.30111
-18.4424 -9.71606 0.42324
-19.7878 -10.225 -0.638032
-20.3724 -10.079 -1.51712
-19.8529 -10.2338 -1.09124
-20.3606 -10.261 -2.16328
-19.8292 -10.4136 -1.88292
-15.9531 -8.84611 0.816433
-18.6317 -10.8104 -1.30785
-17.7755 -10.5893 -0.497539
-19.0737 -10.8472 -2.39649
-17.2794 -10.7441 -0.453856
-19.0299 -10.8999 -2.50535
-18.7805 -10.9555 -2.34854
-17.1356 -10.8443 -0.588081
-18.6594 -11.0461 -2.49628
-16.0384 -11.259 -0.456942
-17.2967 -10.9514 -2.52031
-15.7246 -11.6615 -0.947561
-14.9094 -12.6802 -2.46789
-19.6381 -10.14 0.0480278
-18.5517 -9.71002 0.306178
-19.8129 -10.1655 -0.557287
-16.4932 -8.5917 0.662467
-17.925 -9.99293 0.444005
-16.1179 -8.7498 0.87932
-17.1744 -10.7299 -0.0310858
-19.0615 -10.859 -2.4308
-17.0772 -10.7796 -0.19286
-17.2129 -10.7632 -0.407424
-17.2151 -10.8104 -0.610554
-17.2817 -10.8002 -0.739158
-17.0846 -10.8142 -0.519974
-17.2044 -10.796 -0.750785
-17.1799 -10.8168 -0.748456
-17.0056 -10.8891 -0.714996
-17.1136 -10.9262 -0.973981
-16.0363 -11.2769 -0.381109
-16.3496 -11.3376 -2.4972
-20.5243 -10.0682 -1.62693
-17.2097 -10.7162 -0.105384
-18.9315 -10.8795 -2.4469
-16.5097 -10.6054 0.257979
-17.1969 -10.8803 -0.767097
-16.2116 -11.2865 -0.755341
-16.1414 -11.2366 -0.663774
-16.6365 -11.2338 -2.50112
-16.0963 -11.3224 -2.12513
-20.0111 -9.92397 0.442649
-18.249 -9.6469 1.17029
-19.4192 -10.2196 0.0776139
-15.8687 -8.87472 0.835019
-18.2619 -10.459 -0.630327
-17.8963 -10.7973 -0.953903
-17.2422 -10.7198 -0.342975
-17.8784 -10.6837 -1.52277
-16.1677 -11.1771 -0.325844
-16.1905 -11.2543 -0.749272
-16.1501 -11.3107 -0.816982
-15.9865 -11.3169 -0.623453
-20.0827 -10.1535 -0.924389
-15.443 -9.05083 0.672625
-17.0063 -10.8309 -0.247813
-20.2018 -9.96511 -0.17748
-17.9858 -10.6424 -0.323565
-17.2235 -10.7518 -0.421199
-16.5959 -11.2208 -1.76382
-20.076 -9.86839 0.250278
-20.5284 -10.0452 -1.27864
-18.1008 -9.91692 0.254356
-16.1801 -8.76784 0.562358
-19.8523 -10.2763 -1.06693
-17.4574 -10.1502 0.40808
-17.4519 -10.2195 0.291802
-15.4227 -9.08115 0.640632
-17.6655 -10.7015 -0.0930243
-19.495 -10.5364 -1.63968
-17.0213 -10.7729 -0.189634
-18.6906 -10.8872 -1.53793
-19.1345 -10.8008 -2.12432
-17.635 -10.9159 -1.36414
-16.0359 -11.3591 -0.945451
-17.1046 -10.9068 -2.11824
-15.704 -11.7094 -0.99869
-18.1316 -9.91129 0.334804
-15.8642 -8.81494 0.890761
-15.8185 -8.85735 0.849578
-17.9657 -10.6314 -0.311427
-19.7482 -10.4415 -1.77875
-17.0656 -10.7861 -0.188865
-17.64 -10.8257 -0.719169
-17.2254 -10.7189 -0.468394
-17.1762 -10.78 -0.564533
-19.1596 -10.7774 -2.16302
-17.2778 -10.8299 -0.951684
-19.1119 -10.8563 -2.40389
-17.1605 -10.9183 -1.04338
-20.1859 -9.85721 0.250082
-19.5926 -10.0927 0.254171
-15.6318 -8.44335 1.251
-16.1661 -8.73034 0.893922
-16.1356 -8.74054 0.878551
-20.4958 -9.90083 -1.16742
-18.035 -9.90872 0.43851
-16.2499 -8.71126 0.592086
-15.922 -8.81684 0.811311
-17.4116 -10.2193 0.275441
-17.1123 -10.3598 0.333941
-15.4507 -9.06707 0.662145
-15.4897 -9.0784 0.613787
-18.0804 -10.6148 -0.405564
-17.6212 -10.8705 -0.719992
-17.1019 -10.8142 -0.482662
-19.4792 -10.6384 -2.38609
-16.1646 -11.2097 -0.30209
-16.036 -11.3053 -0.726884
-16.1513 -11.2917 -0.83929
-16.451 -11.3074 -1.78135
-16.4175 -11.3369 -2.47883
-16.0178 -11.4976 -2.62153
-19.7988 -10.0274 0.125214
-19.9368 -10.0142 -0.0768827
-20.4526 -9.98565 -1.01223
-16.1498 -8.74943 0.897653
-18.3019 -9.83666 0.299866
-16.1645 -8.72052 0.862439
-16.2329 -8.73156 0.653765
-17.2603 -10.2187 0.432911
-17.0509 -10.7522 -0.116637
-16.0568 -11.361 -0.646632
-20.2692 -9.69921 0.878146
-19.9115 -9.95504 0.106362
-17.8944 -10.6672 -0.236098
-16.0193 -10.7703 0.574416
-17.7729 -10.8293 -0.898923
-16.825 -11.1457 -1.27557
-15.9899 -10.7729 0.524287
-17.4664 -10.8111 -0.604256
-15.7037 -11.7547 -0.935604
-15.2747 -11.7878 -1.278
-16.4478 -11.3082 -1.41632
-16.0988 -8.71553 0.846965
-18.436 -9.74379 0.428026
-16.1831 -8.7379 0.575242
-18.1004 -9.87194 0.361663
-17.8586 -9.987 0.425808
-18.0269 -9.90221 0.265885
-15.4246 -9.04736 0.662221
-19.8301 -10.1841 -0.643119
-20.4188 -10.0335 -1.03707
-20.5356 -9.97479 -1.11663
-20.044 -10.1508 -1.05112
-16.4835 -10.6178 0.357937
-19.9065 -10.345 -1.52394
-15.866 -10.8464 0.364074
-19.5297 -10.5384 -1.81487
-18.5835 -10.8492 -1.30265
-20.1541 -10.3585 -2.27191
-15.9996 -11.2463 -0.188208
-16.7454 -11.1132 -1.23288
-18.7502 -10.9722 -2.44851
-16.4263 -11.2969 -1.55854
-16.7719 -11.1634 -2.53922
-16.3348 -11.3881 -2.56557
-18.4459 -9.59236 0.944792
-19.8851 -10.0303 0.0938794
-15.8188 -8.86656 0.856241
-19.9704 -9.99809 -0.0329032
-20.5713 -9.98029 -1.14923
-20.1082 -10.1422 -1.01142
-16.6368 -10.4884 0.513669
-20.4113 -10.1026 -1.53154
-17.0995 -10.7342 -0.036386
-17.2579 -10.7371 -0.188222
-20.3925 -10.1247 -1.93467
-19.7746 -10.4059 -1.60934
-17.0036 -10.8217 -0.178003
-17.1838 -10.749 -0.385086
-17.159 -10.7717 -0.546167
-16.1162 -11.2036 -0.337887
-16.1613 -11.2251 -0.387945
-19.223 -10.7767 -2.12351
-19.0335 -10.7965 -2.06175
-17.0599 -11.0445 -2.55135
-16.142 -8.72773 0.905334
-18.5368 -9.73398 0.318565
-19.781 -10.1357 -0.359201
-20.1266 -10.0995 -0.655084
-20.09 -10.1206 -0.888914
-16.8561 -10.8117 -0.255118
-16.077 -11.2677 -0.471429
-19.5751 -10.6419 -2.52133
-18.4833 -9.68319 0.437702
-15.8857 -8.82463 0.84891
-17.9411 -9.95529 0.437686
-19.1797 -10.4344 -0.287484
-18.2483 -10.4732 -0.126549
-16.6719 -10.8042 -0.189559
-16.0413 -11.3576 -0.970092
-16.796 -11.1615 -2.57043
-16.176 -11.4326 -2.51544
-15.7684 -8.90895 0.937564
-19.9807 -10.0304 -0.0175616
-19.9478 -10.4432 -2.19639
-16.9227 -11.045 -2.14301
-17.7429 -10.8695 -1.27563
-15.5817 -11.806 -1.89126
-17.813 -10.7056 -0.364674
-15.6951 -11.6163 -1.01447
-20.3655 -9.68118 0.833827
-16.1098 -8.7499 0.835626
-19.341 -10.0683 1.03139
-16.5289 -8.58344 0.63785
-19.5061 -10.0869 0.636452
-19.3295 -10.1967 0.275799
-20.3989 -9.8957 -0.335493
-20.3658 -9.89811 -0.327057
-19.8651 -10.1213 -0.307873
-18.1804 -10.4564 -0.105814
-19.2072 -10.3558 -0.339209
-18.0848 -10.586 -0.299265
-20.2306 -10.0466 -0.959808
-20.1542 -10.1432 -0.970152
-19.9815 -10.179 -1.01248
-19.2082 -10.4524 -0.770464
-19.8793 -10.198 -0.986315
-16.3656 -11.0012 -0.0433047
-16.7739 -10.7574 -0.258854
-19.3264 -10.4995 -0.849337
-20.368 -10.1156 -1.44076
-20.0679 -10.2342 -1.67027
-19.2827 -10.6225 -1.58262
-19.2801 -10.5866 -1.5909
-15.6512 -11.6623 -0.545642
-18.6871 -10.872 -1.52386
-17.7524 -10.9347 -1.31542
-19.6865 -10.5156 -2.01598
-16.0756 -11.2757 -0.995599
-20.0246 -10.4242 -2.14725
-19.0827 -10.7574 -2.10691
-15.5625 -11.7526 -1.15919
-19.2391 -10.7723 -2.34838
-16.6237 -11.2735 -1.65325
-18.1781 -11.2688 -2.4266
-17.1301 -10.8519 -2.25822
-17.2505 -10.9782 -2.57318
-16.0273 -11.3488 -2.22444
-16.5454 -11.286 -2.56191
-16.1468 -8.71034 0.891703
-19.6892 -9.99345 0.879382
-19.4045 -10.1414 0.86651
-19.4969 -10.0974 0.51495
-20.0854 -9.91625 0.0904579
-17.9402 -9.92779 0.430249
-17.3672 -10.1727 0.448824
-19.3764 -10.2806 -0.0921804
-20.1637 -10.0499 -0.643525
-16.2492 -10.7468 0.296206
-20.0558 -10.1825 -0.895539
-19.3594 -10.3669 -0.844777
-19.2819 -10.5163 -1.0911
-16.2873 -11.1565 -1.26161
-16.6475 -11.2449 -1.6936
-18.8885 -11.0112 -2.46222
-16.1085 -11.3072 -2.19856
-15.9271 -11.435 -2.203
-18.4816 -9.58242 0.913772
-19.6394 -10.0508 0.282353
-16.6384 -10.4805 0.538933
-19.2861 -10.4287 -0.706816
-16.9117 -10.7035 -0.145994
-16.6218 -10.8562 -0.176456
-18.9903 -10.6651 -1.28462
-17.8745 -10.7344 -1.56562
-18.4168 -10.9988 -1.82329
-17.2354 -10.8578 -2.38755
-19.838 -9.99005 0.345348
-17.678 -10.1222 0.294951
-19.4617 -10.3972 -0.972551
-16.4525 -10.8337 -0.282294
-16.2096 -11.1531 -0.170186
-16.0433 -11.2472 -0.410735
-16.7698 -11.1688 -1.22286
-16.9521 -10.5061 0.213699
-19.4392 -10.2833 -0.30595
-19.3203 -10.4794 -0.997219
-19.3873 -10.4547 -1.03488
-16.5235 -11.0047 -0.71712
-18.5936 -11.0308 -2.3338
-16.9848 -10.9907 -1.94386
-16.0129 -11.3513 -3.01157
-17.0863 -10.3344 0.282868
-16.7417 -11.0838 -1.73881
-16.7767 -8.45616 1.07694
-16.5678 -10.8292 -0.296154
-15.1293 -12.2902 -2.14962
-17.1376 -10.7201 -0.224573
-17.5488 -10.1007 0.44467
-16.9617 -10.9316 -0.849813
-16.5909 -8.39305 1.06044
-19.4787 -8.91689 1.47071
-20.0781 -9.76612 0.873519
-19.4499 -10.0797 0.899358
-19.4508 -10.0672 0.885936
-17.8792 -9.94494 0.512021
-18.0233 -9.8874 0.41638
-19.9956 -9.89046 0.443852
-17.446 -10.1692 0.424723
-19.7514 -9.98865 0.448674
-19.8513 -9.99465 0.431769
-19.6843 -10.0833 0.459447
-19.3844 -10.1905 0.413649
-19.8217 -9.98086 0.388354
-19.8312 -9.97525 0.39676
-17.0693 -10.3421 0.339599
-19.7499 -9.99722 0.31869
-19.6536 -10.1395 0.27449
-16.4302 -10.6223 0.218066
-19.6812 -10.0973 0.102064
-17.3324 -10.6348 0.0703385
-19.436 -10.2611 -0.0897158
-16.8198 -10.8365 -0.103274
-19.7951 -10.1231 -0.251933
-16.7239 -10.7621 -0.194126
-19.3212 -10.3877 -0.493677
-18.5519 -10.199 -0.60904
-20.3274 -9.98803 -0.673276
-15.68 -11.6074 -0.489724
-20.1361 -10.0849 -0.879411
-19.2736 -10.4907 -0.852264
-19.2365 -10.4637 -0.859196
-19.5847 -10.3552 -0.951873
-18.5401 -10.1311 -0.982356
-20.5047 -9.98241 -1.04961
-19.3055 -10.4688 -1.03438
-20.4024 -10.0612 -1.27334
-20.0472 -10.201 -1.27765
-18.6147 -10.8557 -1.27359
-16.846 -11.1347 -1.20248
-16.3025 -11.163 -1.30843
-20.3241 -10.1466 -1.56603
-20.3423 -10.1382 -1.62626
-19.4912 -10.5646 -1.60715
-19.3686 -10.5914 -1.8751
-20.2803 -10.3575 -2.16264
-20.2857 -10.2497 -2.19401
-19.1213 -10.8088 -2.13369
-19.6701 -10.5904 -2.13824
-20.442 -10.1589 -2.23661
-20.173 -10.3223 -2.29449
-17.098 -10.9215 -2.08204
-17.1237 -10.9201 -2.18229
-20.1497 -10.4117 -2.34636
-16.0343 -11.3243 -2.13858
-16.1058 -11.3497 -2.16655
-19.227 -10.8331 -2.4679
-16.0785 -11.3557 -2.24049
-15.6352 -8.40281 1.21737
-19.121 -8.98061 1.4612
-19.5288 -9.74153 1.53643
-19.5869 -9.91967 1.1436
-18.226 -9.69838 0.917948
-18.4105 -9.65824 0.914888
-19.3539 -10.1112 1.0748
-20.0565 -9.80912 0.87763
-19.4347 -10.0675 0.902984
-18.276 -9.8503 0.312221
-18.593 -9.69565 0.206911
-15.8706 -10.866 0.315108
-17.0171 -10.5648 0.249057
-19.4209 -10.2044 0.222446
-19.2756 -10.2812 0.204314
-19.1805 -10.331 0.150477
-19.2181 -10.3018 0.073794
-18.5295 -10.122 -0.139621
-19.8088 -10.1095 -0.165379
-19.1081 -10.4719 -0.300697
-19.1282 -10.3609 -0.320346
-19.1926 -10.4638 -0.526673
-19.3266 -10.3903 -0.726913
-19.3458 -10.3944 -0.849474
-18.5994 -10.8005 -1.15192
-19.0657 -10.7019 -1.30846
-18.4173 -10.9906 -1.50209
-18.444 -10.989 -1.55937
-18.8627 -10.8785 -2.11541
-18.9412 -10.852 -2.12196
-20.0589 -10.4938 -2.54618
-19.0076 -10.9481 -2.53603
-18.9833 -10.8865 -2.48934
-16.1393 -11.4192 -2.55158
-19.4686 -10.0937 0.655078
-19.5268 -10.0851 0.636751
-19.2091 -10.2447 0.442086
-19.3747 -10.2222 0.464961
-19.3552 -10.1747 0.250681
-19.3098 -10.2739 0.129998
-19.1259 -10.3717 -0.104452
-19.2822 -10.3531 -0.242947
-15.6326 -11.7623 -0.954944
-16.4826 -11.2724 -1.64416
-16.4044 -11.3895 -1.7567
-17.8852 -10.7397 -1.97587
-19.4497 -10.6592 -2.15277
-17.0549 -10.9343 -2.02158
-20.3109 -10.296 -2.39687
-17.613 -10.9288 -2.31252
-19.4889 -10.8216 -2.45294
-16.2834 -11.2291 -2.75716
-16.1048 -11.3106 -2.82815
-15.9035 -11.4276 -2.85584
-14.8231 -12.845 -3.01391
-20.1764 -9.65946 0.871697
-19.5213 -10.0955 0.44479
-19.308 -10.3545 -0.324258
-19.4926 -10.4808 -0.987958
-19.4502 -10.4277 -1.03004
-18.4489 -10.2126 -1.04887
-15.6098 -11.7548 -1.00601
-17.6386 -10.8769 -1.35226
-17.6102 -10.9318 -2.38291
-17.3889 -10.9212 -2.42634
-15.3536 -12.5592 -2.72091
-15.9493 -11.3797 -2.90931
-19.4848 -10.0512 0.902678
-20.0005 -9.79756 0.851504
-19.3333 -10.4416 -0.64716
-16.3359 -11.1816 -1.28566
-16.6366 -11.2329 -1.71275
-19.9421 -10.435 -2.40038
-16.263 -11.1548 -2.27973
-15.7359 -11.5004 -2.80745
-18.5455 -9.42741 1.31823
-18.1955 -10.1885 0.111607
-19.4216 -10.3782 -0.590247
-19.1913 -10.4073 -0.790956
-19.2353 -10.4265 -0.887395
-18.5933 -11.0787 -2.31787
-16.9365 -11.0116 -2.35379
-15.7788 -11.6756 -2.37475
-17.7765 -10.3444 0.195665
-19.1344 -10.629 -1.27532
-15.8283 -11.6504 -2.34557
-16.4788 -10.6276 0.359614
-16.3584 -10.9427 -0.259297
-18.0664 -11.3566 -2.79524
-18.111 -11.327 -2.73956
-18.2839 -11.239 -2.70305
-18.5572 -11.1173 -2.49066
-18.3595 -11.1766 -2.50033
-18.3265 -11.1972 -2.45183
-18.3564 -11.1733 -2.28422
-18.3621 -11.1709 -2.34709
-16.1987 -11.2738 -2.27379
-20.1598 -10.3895 -2.18768
-20.1336 -10.361 -2.2182
-19.2977 -10.7213 -2.22125
-19.2452 -10.7035 -2.2367
-18.8521 -10.8672 -2.17329
-19.1025 -10.7761 -2.13697
-18.8493 -10.904 -2.17884
-18.9073 -10.88 -2.0938
-20.1501 -10.3257 -2.08834
-18.7675 -10.9283 -2.0702
-18.7433 -10.9549 -2.07537
-19.5085 -10.5486 -1.97699
-19.4927 -10.6077 -2.00263
-19.5049 -10.5602 -1.97979
-19.4211 -10.6576 -1.95206
-19.6375 -10.4992 -1.95448
-19.0989 -10.7003 -1.84317
-18.9564 -10.7472 -1.84683
-19.6251 -10.5283 -1.83523
-19.5736 -10.5305 -1.82182
-19.4959 -10.5631 -1.85202
-18.9093 -10.8488 -1.80697
-18.5352 -10.9649 -1.75046
-18.8248 -10.8682 -1.76543
-20.0676 -10.2437 -1.63895
-20.3844 -10.1499 -1.62047
-15.6794 -11.8168 -1.70776
-19.1071 -10.6945 -1.56341
-18.3438 -10.9655 -1.58139
-18.6458 -10.8929 -1.51091
-20.2868 -10.1114 -1.46265
-15.6579 -11.8014 -1.52278
-17.5457 -10.8904 -1.50563
-15.6788 -11.8183 -1.54648
-19.4693 -10.4766 -1.48531
-20.325 -10.1066 -1.45631
-17.6242 -10.9649 -1.46305
-15.6901 -11.7571 -1.49649
-15.6735 -11.8001 -1.45834
-20.3117 -10.1064 -1.41224
-20.0972 -10.1407 -1.25843
-20.1023 -10.2213 -1.19755
-20.2082 -10.1378 -1.22075
-18.8939 -10.675 -1.14375
-19.9675 -10.1791 -1.10379
-19.6717 -10.3386 -1.11411
-19.5847 -10.3478 -1.03023
-19.5171 -10.4128 -1.03672
-19.1451 -10.5421 -0.841903
-19.1097 -10.5494 -0.820567
-19.1566 -10.5729 -0.786919
-16.6455 -10.9304 -0.794
-19.0828 -10.5472 -0.823011
-19.1489 -10.5484 -0.796277
-20.3083 -9.99103 -0.801879
-19.57 -10.3228 -0.706648
-19.0869 -10.5304 -0.686817
-19.7698 -10.2239 -0.629023
-20.3253 -9.94578 -0.614794
-16.591 -10.7735 -0.511125
-17.8067 -10.6087 -0.48059
-19.5968 -10.1992 -0.441326
-17.7746 -10.6167 -0.441952
-19.6844 -10.2029 -0.404268
-16.1726 -11.2429 -0.358459
-16.0883 -11.2313 -0.320586
-19.2484 -10.3466 -0.280441
-20.1566 -9.97395 -0.302515
-19.7277 -10.1214 -0.210847
-19.769 -10.1095 -0.0338906
-19.7301 -10.0886 -0.00380823
-20.1882 -9.86774 0.0164334
-20.1533 -9.87889 0.0445248
-19.3312 -10.2403 0.160223
-19.8618 -10.0358 0.091592
-19.8787 -10.0188 0.120724
-20.3226 -9.78733 0.296277
-20.4279 -9.74414 0.294557
-19.1221 -10.2866 0.420139
-16.894 -10.4635 0.371323
-16.8789 -10.4099 0.308744
-18.4971 -9.75005 0.318124
-17.4981 -10.1879 0.343215
-18.0847 -9.91277 0.311245
-19.7688 -10.0308 0.426321
-15.8711 -10.8287 0.489323
-18.2807 -9.78132 0.413297
-18.5704 -9.72611 0.449115
-19.4704 -10.1296 0.624663
-19.8361 -9.90081 0.659429
-19.8482 -9.90506 0.618423
-20.3263 -9.68377 0.647516
-19.4305 -10.1113 0.723482
-19.7723 -9.93794 0.845971
-19.7397 -9.91944 0.826261
-19.8319 -9.86845 0.9489
-19.7576 -9.87047 0.977359
-19.6135 -9.96454 1.07603
-19.3874 -9.98341 1.21607
-19.6528 -9.92968 1.18323
-16.273 -11.3607 -2.58682
-19.3103 -10.8032 -2.50962
-18.5701 -11.1214 -2.53157
-18.262 -11.2171 -2.45838
-18.756 -11.0275 -2.32759
-18.5169 -11.092 -2.34389
-18.3787 -11.1497 -2.32901
-18.3753 -11.1823 -2.27458
-17.2243 -10.8892 -2.19703
-18.9193 -10.9405 -2.2382
-19.8322 -10.5232 -2.21622
-16.092 -11.3292 -2.11578
-19.8412 -10.5043 -2.1455
-18.5336 -11.0984 -2.16252
-16.7331 -11.2942 -2.17723
-19.149 -10.7897 -2.09809
-18.5984 -10.9817 -2.1084
-18.483 -11.0663 -2.10797
-19.0054 -10.8659 -2.04989
-18.4246 -11.0838 -2.09361
-18.4203 -11.0705 -2.10774
-19.0861 -10.8183 -2.01823
-18.6677 -10.9939 -2.0515
-19.1838 -10.7516 -1.95295
-17.7241 -10.8813 -1.9491
-19.9971 -10.3317 -1.90425
-19.16 -10.7326 -1.837
-19.0107 -10.799 -1.90392
-19.0925 -10.7582 -1.85203
-19.7756 -10.4507 -1.85801
-19.4188 -10.6002 -1.77428
-17.7496 -10.9609 -1.79967
-18.4769 -11.035 -1.8155
-16.6106 -11.3008 -1.81706
-16.7359 -11.2512 -1.84367
-18.824 -10.8705 -1.72392
-19.6027 -10.4756 -1.68957
-18.973 -10.7544 -1.5402
-19.2876 -10.5618 -1.57275
-18.9705 -10.7584 -1.57701
-15.6907 -11.8107 -1.56707
-19.1208 -10.7099 -1.55192
-20.3667 -10.1293 -1.47129
-15.6428 -11.7987 -1.45955
-17.9019 -10.7955 -1.36502
-17.9555 -10.7844 -1.30406
-19.2001 -10.5632 -1.30253
-19.0549 -10.6617 -1.3062
-17.9812 -10.7749 -1.30967
-19.164 -10.5915 -1.31464
-19.9225 -10.2735 -1.26672
-18.6095 -10.8598 -1.28092
-19.0591 -10.6232 -1.30405
-18.8073 -10.7487 -1.27934
-18.8422 -10.8063 -1.271
-18.8753 -10.7759 -1.22594
-20.0272 -10.2373 -1.18853
-15.3874 -11.863 -1.2503
-20.2852 -10.0595 -1.18025
-20.0486 -10.2161 -1.16638
-20.516 -9.95556 -1.13247
-16.7882 -11.0565 -1.10421
-16.848 -11.0906 -1.0442
-19.8978 -10.2626 -1.08285
-19.37 -10.456 -1.03673
-19.0883 -10.5865 -0.963848
-20.109 -10.1066 -1.01658
-19.0817 -10.5974 -1.02494
-19.6412 -10.3272 -0.932049
-19.6805 -10.3084 -0.919236
-20.0699 -10.1186 -0.895427
-19.614 -10.3126 -0.934511
-19.8797 -10.1967 -0.907163
-15.6401 -11.7145 -0.855868
-19.4376 -10.3634 -0.811013
-15.9733 -11.3429 -0.773987
-16.2088 -11.2423 -0.72161
-16.655 -10.8945 -0.778692
-16.1519 -11.2672 -0.727002
-16.0655 -11.3277 -0.716903
-15.9422 -11.357 -0.671738
-19.78 -10.2188 -0.685743
-18.977 -10.578 -0.559952
-18.9471 -10.5199 -0.516921
-16.711 -11.0544 -0.547348
-17.0179 -10.8434 -0.469669
-16.593 -10.8084 -0.460292
-18.5142 -10.3513 -0.355654
-19.7586 -10.1311 -0.319546
-19.1336 -10.4447 -0.260418
-19.9472 -10.0743 -0.278408
-16.7642 -10.7616 -0.238455
-16.875 -10.8661 -0.234366
-16.7283 -10.7935 -0.251935
-16.5963 -10.8045 -0.195472
-18.2362 -10.4905 -0.0690106
-20.0047 -9.98052 -0.0195674
-20.0769 -9.98056 -0.00721204
-19.2899 -10.2835 0.0550718
-19.6655 -10.1668 0.0839861
-20.1347 -9.89021 0.11106
-19.6584 -10.1393 0.137614
-20.122 -9.88298 0.196479
-19.5764 -10.154 0.268482
-19.9028 -9.99166 0.251758
-19.8646 -9.98491 0.233722
-19.8093 -10.0052 0.330641
-20.2954 -9.79743 0.257126
-17.1204 -10.3403 0.293272
-17.0618 -10.362 0.283898
-18.0812 -9.94612 0.314356
-19.1043 -10.3028 0.425065
-16.8812 -10.4296 0.384528
-19.2991 -10.2584 0.491497
-16.0671 -10.752 0.45163
-17.9324 -9.9586 0.37176
-19.9857 -9.90217 0.482348
-18.4987 -9.70743 0.402499
-16.6298 -10.4882 0.536966
-20.0816 -9.8317 0.570731
-20.226 -9.77097 0.543967
-20.2132 -9.70793 0.849853
-19.9476 -9.80641 0.883652
-20.3442 -9.66768 0.886698
-20.1762 -9.72241 0.869537
-19.5078 -9.95154 1.10961
-18.2028 -9.70325 0.933289
-20.2093 -9.65606 1.12399
-16.1986 -8.72596 0.685188
-15.9067 -8.849 0.672019
-19.7758 -9.78745 1.35147
-16.4984 -8.59911 0.6943
-15.7199 -8.90474 0.809828
-16.1888 -8.71307 0.812368
-19.1741 -9.94182 1.49521
-19.1974 -9.92225 1.49935
-14.9244 -12.7615 -2.69164
-18.749 -11.0484 -2.44399
-19.1336 -10.8092 -2.3923
-20.0256 -10.3614 -2.31495
-18.8363 -10.9863 -2.301
-20.1262 -10.3029 -2.26989
-20.2342 -10.2818 -2.23562
-18.376 -11.1136 -2.30103
-16.0129 -11.3551 -2.26706
-20.2484 -10.3516 -2.20263
-19.2453 -10.726 -2.16888
-18.375 -11.1106 -2.08731
-19.9967 -10.3938 -2.0301
-18.967 -10.8111 -2.03807
-19.6577 -10.5245 -2.02387
-19.15 -10.7276 -1.96481
-19.1372 -10.7817 -1.92473
-19.1823 -10.6999 -1.87645
-19.1215 -10.7509 -1.8727
-19.7924 -10.4528 -1.8179
-19.7675 -10.369 -1.59509
-19.0354 -10.6675 -1.30205
-18.7862 -10.7619 -1.25216
-20.2312 -10.1038 -1.24806
-19.1798 -10.503 -0.850831
-17.1879 -10.8244 -0.849458
-19.1269 -10.4987 -0.759226
-16.2022 -11.261 -0.706171
-19.0563 -10.5282 -0.673206
-19.8282 -10.1853 -0.617863
-19.8035 -10.1828 -0.593332
-19.93 -10.1137 -0.580237
-15.5816 -11.5806 -0.51246
-17.788 -10.6152 -0.451163
-19.5422 -10.285 -0.427496
-19.4355 -10.3356 -0.314838
-18.9537 -10.495 -0.313878
-16.0267 -11.2429 -0.212334
-20.283 -9.95716 -0.256693
-17.8549 -10.6364 -0.226605
-17.1464 -10.7922 -0.242595
-17.0473 -10.8266 -0.193852
-16.7874 -10.7948 -0.245876
-16.6229 -10.8329 -0.233487
-18.2145 -10.528 -0.109444
-19.1907 -10.3438 -0.0967437
-18.1907 -10.5222 -0.0912203
-19.6032 -10.155 0.0420995
-19.6176 -10.1736 0.136004
-19.4467 -10.2488 0.117895
-19.7195 -10.1101 0.170095
-19.7269 -10.0912 0.146271
-19.1924 -10.3734 0.145097
-19.1678 -10.3239 0.319097
-19.8263 -10.0454 0.326343
-18.4347 -9.75913 0.165153
-16.5006 -10.595 0.301215
-17.7016 -10.102 0.257585
-17.7705 -10.0903 0.287401
-17.722 -10.0624 0.272905
-15.856 -10.894 0.339749
-18.2919 -9.81486 0.284166
-19.2542 -10.2393 0.381308
-19.2504 -10.2641 0.444602
-19.87 -9.94809 0.431671
-19.9677 -9.88957 0.432979
-17.2971 -10.232 0.403449
-17.4473 -10.1625 0.441932
-20.1793 -9.80566 0.523
-19.5091 -10.1114 0.632098
-19.9494 -9.85242 0.641542
-19.7498 -9.9338 0.613854
-19.1499 -10.2051 0.708842
-19.7445 -10.0557 0.665127
-19.5362 -10.0157 0.877072
-19.8984 -9.82862 0.855728
-19.6091 -9.99745 0.905694
-20.4474 -9.59851 0.884494
-19.5962 -9.9497 1.16423
-19.5059 -9.9522 1.14804
-16.1988 -8.77521 0.580837
-18.2685 -9.6648 1.14194
-15.7496 -8.8904 0.745946
-15.7552 -8.91151 0.761424
-16.1351 -8.72417 0.92238
-17.1759 -8.60401 1.15675
-16.5893 -8.42492 1.04932
-16.1015 -11.303 -2.82507
-16.982 -11.1318 -2.54275
-16.8202 -11.129 -2.55806
-16.4218 -11.3235 -2.56034
-18.6208 -11.0514 -2.45778
-17.648 -10.9439 -2.32943
-18.8663 -10.9011 -2.32459
-18.9247 -10.8828 -2.21883
-19.9746 -10.4609 -2.15394
-18.5959 -10.9835 -2.19982
-18.4983 -11.0498 -2.14002
-19.2052 -10.7806 -2.13203
-20.0152 -10.3949 -2.10041
-19.1033 -10.7371 -2.05222
-20.3724 -10.2003 -1.92885
-19.2049 -10.7225 -1.87381
-20.0501 -10.2686 -1.67756
-18.6614 -10.9139 -1.52381
-18.6111 -10.8822 -1.49988
-19.9201 -10.2658 -1.18484
-19.0924 -10.5939 -1.02069
-20.0464 -10.1264 -0.966095
-20.0944 -10.1309 -0.961085
-17.9022 -10.7978 -0.972783
-17.8888 -10.7773 -0.943139
-18.486 -10.0743 -0.905673
-15.6157 -11.6995 -0.793618
-17.8018 -10.8153 -0.811102
-17.0635 -10.884 -0.714227
-16.1131 -11.293 -0.653484
-19.1001 -10.5148 -0.654274
-17.7181 -10.8017 -0.576181
-18.0528 -10.5773 -0.402874
-19.2935 -10.3807 -0.418522
-19.231 -10.3707 -0.398197
-20.2459 -9.96299 -0.324991
-19.6562 -10.2003 -0.314284
-20.2862 -9.92999 -0.297275
-17.1912 -10.7049 -0.253594
-20.2424 -9.96564 -0.248928
-20.1807 -9.93469 -0.196784
-16.8646 -10.8173 -0.191396
-17.1601 -10.6934 -0.0885124
-19.1654 -10.3341 0.0516064
-20.1727 -9.91764 0.0922084
-19.8816 -9.96365 0.226194
-19.1957 -10.2667 0.46182
-17.3751 -10.1748 0.391702
-20.1523 -9.7798 0.735923
-19.316 -10.1001 0.841407
-19.853 -9.86295 0.887071
-19.9124 -9.86428 0.877135
-19.7574 -9.89279 0.916372
-19.9193 -9.87421 0.922575
-19.635 -10.0038 0.914862
-19.8693 -9.81547 1.05456
-16.2027 -8.80535 0.556352
-15.8119 -8.91214 0.602407
-19.0999 -10.1245 1.2602
-19.1311 -10.1299 1.29566
-16.5043 -8.59984 0.638964
-17.0233 -8.69994 0.944388
-16.1541 -8.72554 0.887415
-16.5972 -8.38629 0.997915
-16.5624 -8.41021 1.26121
-16.5821 -8.35167 1.23351
-18.4356 -11.1594 -2.35036
-18.8512 -10.9637 -2.3103
-19.1077 -10.7894 -2.17327
-18.9574 -10.8649 -2.12484
-17.2588 -10.8797 -2.06183
-16.1363 -11.3261 -2.0797
-16.0186 -11.3647 -2.05898
-20.3557 -10.2194 -1.90056
-19.0836 -10.7469 -1.87344
-18.5401 -11.064 -1.83938
-18.5993 -10.8848 -1.5185
-19.7102 -10.4206 -1.45448
-20.1859 -10.1684 -1.45856
-19.0695 -10.6365 -1.35056
-16.284 -11.1333 -1.35398
-18.9823 -10.7058 -1.29842
-16.2965 -11.1875 -1.30275
-15.6563 -11.7613 -1.1288
-19.3346 -10.4885 -1.06682
-19.3265 -10.471 -1.0817
-19.1653 -10.5348 -1.03746
-17.2865 -10.8404 -1.02244
-16.2081 -11.3291 -0.96446
-17.5347 -10.8757 -0.907258
-17.1738 -10.882 -0.847471
-19.3611 -10.3367 -0.589688
-17.2536 -10.7443 -0.492809
-16.5713 -10.7277 -0.425919
-19.2225 -10.3966 -0.391465
-16.6463 -10.736 -0.347758
-16.0325 -11.2555 -0.263175
-16.4849 -10.7184 -0.265988
-16.717 -10.7461 -0.253421
-16.8045 -10.7909 -0.223768
-18.4148 -10.1505 -0.166185
-16.2958 -11.0583 -0.0719898
-17.1559 -10.7243 -0.0515873
-19.429 -10.2537 0.0383472
-19.8266 -10.0446 0.151438
-19.6215 -10.1044 0.263621
-19.7253 -10.0338 0.467672
-19.4923 -10.1272 0.529654
-18.4414 -9.69718 0.411424
-18.4656 -9.69423 0.38396
-18.3641 -9.75999 0.470052
-20.0643 -9.84625 0.571381
-17.8368 -9.98815 0.498306
-18.4214 -9.70715 0.454094
-19.4107 -10.1276 0.633914
-18.0191 -9.79538 0.905332
-18.463 -9.55446 0.949096
-18.244 -9.63579 1.15793
-19.4451 -9.76162 1.5129
-16.5718 -11.2423 -2.48769
-17.6312 -10.888 -2.31688
-18.442 -11.1321 -2.31587
-16.0963 -11.2884 -2.22236
-18.4402 -11.102 -2.12513
-19.0258 -10.8246 -2.10058
-18.3913 -11.1106 -2.10382
-19.1534 -10.8025 -2.04747
-20.0811 -10.2593 -1.61073
-17.9338 -10.6743 -1.59249
-20.2422 -10.1397 -1.36677
-19.1767 -10.5757 -0.994705
-17.2215 -10.8191 -0.993609
-16.1743 -11.2949 -0.973845
-19.1157 -10.5335 -0.77863
-17.8106 -10.8092 -0.781488
-16.0865 -11.3081 -0.705132
-15.7046 -11.5868 -0.473738
-17.0813 -10.8141 -0.501983
-17.7687 -10.6986 -0.352262
-19.2429 -10.3851 -0.309366
-17.8659 -10.6336 -0.166291
-16.891 -10.7596 -0.156981
-20.026 -9.92695 0.112853
-18.2685 -9.82833 0.331768
-17.4408 -10.1588 0.41915
-19.8501 -9.9244 0.713015
-19.9735 -9.80209 0.867609
-18.2439 -9.6413 0.874461
-19.5039 -9.97589 1.13588
-20.2039 -9.65975 1.18782
-18.3997 -9.62741 1.08196
-19.0967 -9.92572 1.49046
-18.9444 -10.884 -2.15468
-16.1647 -11.3117 -2.10079
-16.1375 -11.3264 -0.899165
-19.3578 -10.4176 -0.845645
-19.2368 -10.4865 -0.838657
-20.1541 -10.0298 -0.667137
-20.1186 -10.0439 -0.373956
-16.6372 -10.7737 -0.191566
-17.0677 -10.5841 0.201053
-19.2793 -10.2426 0.35497
-18.4412 -9.73214 0.369441
-20.1889 -9.75121 0.696215
-18.3948 -9.58691 1.10649
-19.4329 -9.76738 1.48683
-16.5961 -8.42293 0.994016
-17.2526 -11.0024 -2.46236
-17.9762 -10.7053 -2.04107
-17.2676 -10.8339 -1.91718
-16.3939 -11.3289 -1.44676
-16.0574 -11.3055 -0.618172
-19.5018 -10.2264 -0.197894
-19.2303 -10.2648 0.19393
-18.3694 -9.78007 0.262764
-16.2978 -10.6827 0.431816
-18.0223 -9.81598 0.788895
-17.8619 -10.7526 -1.92242
-17.5662 -10.937 -1.45978
-17.5653 -10.9529 -1.41393
-19.993 -10.2406 -1.29572
-17.2825 -10.7172 -0.516878
-18.6186 -9.57584 0.739023
-18.5045 -9.53266 1.21486
-15.721 -8.89231 0.902443
-17.5666 -10.8943 -2.35345
-17.5127 -11.0373 -2.24461
-19.9535 -10.3924 -1.82291
-19.2554 -10.4249 -0.782853
-17.6598 -10.7789 -0.375093
-17.807 -10.677 -0.377246
-17.4188 -10.8801 -1.23967
-17.7541 -10.8741 -1.23007
-16.9905 -10.8035 -0.115314
-18.0881 -9.66803 1.28774
-16.5382 -8.48218 0.884696
-18.0662 -9.52764 1.44661
-16.9022 -11.0899 -0.895706
-17.4461 -10.7057 -0.0276168
-18.502 -9.46987 1.24603
-17.3888 -10.8982 -1.48532
-20.1543 -10.3463 -2.18953
-20.1021 -10.265 -1.83245
-19.8011 -10.5029 -2.21171
-20.4879 -9.97654 -1.09497
-20.4872 -9.98848 -1.09668
-19.9857 -10.3342 -1.90347
-19.748 -10.4778 -2.17717
-19.515 -10.5975 -1.97354
-19.6111 -10.5164 -1.87015
-19.3422 -10.7105 -2.21829
-19.2726 -10.7287 -2.18952
-19.095 -10.8504 -2.38115
-19.4635 -10.6202 -1.8058
-20.4536 -9.83448 -0.145814
-19.2564 -10.682 -2.0135
-20.3549 -9.87653 -0.311245
-19.3872 -10.5744 -1.55286
-19.1092 -10.7461 -1.85127
-19.0052 -10.7957 -1.83566
-19.8005 -10.2051 -0.617609
-19.7725 -10.2046 -0.637368
-19.3745 -10.5539 -1.27167
-18.9352 -10.8363 -1.80861
-18.7583 -10.87 -1.82694
-18.8257 -10.8608 -1.76154
-18.7221 -10.9375 -1.87741
-19.0995 -10.6595 -1.31428
-19.6589 -10.2101 -0.388613
-18.3982 -11.1657 -2.27247
-20.3329 -9.71622 0.715363
-19.4317 -10.414 -0.642665
-19.9607 -9.95124 0.151315
-19.9046 -9.94457 0.245568
-19.1925 -10.4996 -0.840781
-19.7155 -10.1043 -0.0162278
-19.1274 -10.529 -0.800545
-19.1553 -10.4955 -0.818999
-18.608 -10.8675 -1.50964
-19.6405 -10.1391 0.00535362
-18.4939 -10.0842 -0.901616
-19.4306 -10.2246 0.0935029
-18.4323 -10.9192 -1.28138
-19.8295 -9.8855 0.955101
-19.7687 -9.91714 0.836008
-19.2721 -10.2377 0.450112
-19.7964 -9.67922 1.43192
-19.0838 -10.3002 0.460985
-18.1373 -10.5925 -0.637021
