2.3459 2.31788 1.40759
2.43 2.52424 1.45659
2.47661 -0.247555 1.54216
2.5922 -0.0189949 1.49568
2.43306 -0.0741493 1.55628
3.49771 -0.546132 1.44439
3.24646 -0.520449 1.59377
2.63929 0.869558 2.09397
2.83807 -0.0920213 2.23945
3.8828 -0.352506 2.60109
-2.08586 0.799417 -3.77698
-1.32798 0.243761 -3.33895
-2.93162 1.10178 -3.65164
-0.580233 0.0911207 -3.15397
-0.298078 0.115362 -3.09852
-2.14689 0.882871 -3.41008
-2.81164 1.11802 -3.20068
0.67044 0.293931 -2.2914
2.37924 -1.20213 -2.03423
-0.342292 1.18791 -2.1909
-0.421872 1.25196 -2.10666
0.794833 0.497435 -2.05468
0.818714 0.681338 -2.09251
0.67036 0.679654 -1.99236
-0.178176 1.21001 -2.06464
2.74241 -1.16392 -1.87359
1.28185 -0.496273 -1.71215
3.25005 -1.42815 -1.6129
-0.395192 1.11024 -1.67743
2.09701 -0.963414 -1.56275
2.45142 -0.860841 -1.55532
2.66561 -1.10993 -1.40472
2.53182 -0.998163 -1.43529
0.873888 0.878292 -1.37176
0.876134 0.600365 -1.53484
0.895865 0.511869 -1.3103
0.883155 0.686621 -1.10942
1.46418 -0.326847 -1.27409
1.50882 -0.072091 -1.05668
3.20499 -1.15499 -1.13664
2.06283 -0.424646 -0.986949
2.07076 -0.485332 -0.952375
2.27624 -0.682476 -0.780086
2.60746 -0.798205 -0.789645
3.12213 -1.03709 -0.822061
0.00423408 1.25857 -0.592737
1.03426 0.861707 -0.422687
1.60823 -0.194916 -0.610386
1.07306 0.472692 -0.420635
2.87173 -0.912658 -0.572801
3.40521 -1.22226 -0.605563
2.01314 -0.423327 -0.421467
0.869966 0.729986 -0.0932605
2.25345 -0.547005 -0.207275
0.367354 1.17605 0.0243
2.6899 -0.684176 -0.270847
2.03156 -0.187979 -0.0290119
2.18178 -0.404075 -0.0984051
0.464573 1.52106 0.306122
2.45949 -0.498645 0.0699649
2.84572 -0.583151 -0.0579441
2.61937 -0.519975 0.0144651
2.73652 -0.600753 -0.0337728
1.42605 0.644832 0.164796
3.09485 -0.802512 -0.121018
2.26413 -0.403186 0.304415
3.34841 -0.991671 -0.0304875
1.55188 0.362223 0.442933
1.40969 0.386214 0.315638
0.738209 1.10146 0.467415
0.542232 1.11093 0.640527
0.963628 0.953618 0.659474
2.32675 0.466821 0.623404
2.14736 0.414914 0.938842
1.17739 1.41334 1.1718
3.65035 -0.862277 0.759052
2.30143 0.780243 1.13939
2.49142 0.40151 1.09686
2.14468 -0.128069 1.12698
1.9178 1.0687 1.29786
2.21279 2.70474 1.23555
2.23134 2.34488 1.24756
2.11614 1.5989 1.4119
2.55156 2.34076 1.67063
2.52788 1.02226 2.09036
3.59407 -0.557818 1.74454
3.51099 -0.475892 1.64587
3.65129 -0.581141 1.67414
2.63137 0.0823944 2.01904
2.69901 0.0339989 2.13771
2.73059 -0.047708 2.23949
4.02343 -0.337751 2.61418
-0.244892 -0.0285408 -3.07274
0.00458225 -0.0370738 -3.09576
0.553393 -0.414673 -2.85887
-0.0612224 0.0515751 -3.01641
0.512074 -0.355624 -3.056
0.339026 -0.31353 -2.97756
-1.84997 0.766559 -2.99958
2.26389 -1.12471 -2.5424
1.5527 -0.567342 -2.44277
1.56523 -0.759959 -2.41684
1.58769 -0.839736 -2.54749
0.214985 0.929151 -2.44347
1.40245 -0.684488 -2.27294
2.85144 -1.34776 -2.10505
2.84965 -1.17694 -1.9151
2.62323 -0.914511 -1.76588
0.915423 0.624605 -1.69656
2.21036 -1.02911 -1.7551
2.86155 -1.14982 -1.49617
2.17005 -0.716597 -1.35368
2.45091 -0.848679 -1.41191
2.66946 -1.06361 -1.34924
-0.172915 1.10385 -1.41771
2.19927 -0.669281 -1.21074
1.99741 -0.502233 -1.18264
2.11056 -0.796777 -1.23383
2.87386 -0.964561 -0.741501
-0.0455249 1.11403 -0.598604
1.08698 0.820157 -0.574953
0.926448 0.301372 -0.479959
2.11403 -0.480512 -0.592736
2.44171 -0.525425 -0.577201
2.70096 -0.861348 -0.527735
0.359881 1.09049 -0.0205678
2.93884 -0.797571 -0.200734
2.9079 -0.701307 -0.210334
0.816454 0.998 0.242983
2.681 -0.672784 -0.0237413
3.15766 -0.821611 -0.0376174
0.501639 1.40832 0.35639
2.88095 -0.5778 0.218271
0.976704 0.786336 0.623846
3.50118 -0.794035 0.374495
2.07164 0.316942 0.720268
1.03683 1.45305 1.162
2.50392 -0.208414 0.875849
2.98262 -0.426688 0.637699
1.43252 1.30713 1.16186
2.41956 -0.229774 0.791695
2.01175 0.853943 1.22971
2.62694 -0.244917 1.07925
2.92716 -0.409372 1.14142
2.52338 2.39427 1.34038
3.15119 -0.523578 1.11115
2.26418 0.104366 1.50684
2.23884 2.71899 1.53946
2.0925 1.71606 1.97848
2.95336 -0.207745 1.67733
2.48516 0.343327 2.41784
3.7837 -0.692087 1.8172
4.05992 -0.625169 2.04031
4.12175 -0.412373 2.61359
3.98128 -0.314462 2.60015
4.27084 -0.40837 2.70098
0.0702408 -0.0476253 -2.89569
0.878874 -0.461171 -2.74813
1.50055 -0.833089 -2.56361
-0.275647 1.24231 -2.19747
1.15466 0.44139 -1.99231
2.10357 -0.943839 -1.74388
2.91444 -1.12116 -1.6671
1.80416 -0.675151 -1.81059
1.0106 0.323973 -1.65732
3.42272 -1.41281 -1.37365
1.42235 0.411295 -1.28823
-0.979902 1.54786 -0.744493
2.07584 -0.42905 -0.00809144
0.391408 1.45157 0.437256
2.0383 0.173336 0.279261
1.43825 0.514968 0.367461
3.3601 -0.780446 0.361365
1.9362 1.30823 1.31706
3.2378 -0.447672 1.38907
2.57292 0.0728031 1.86725
2.75408 -0.0612653 1.83463
2.35833 0.343111 2.3199
2.33427 0.20859 2.27259
3.90939 -0.286564 2.49356
4.20253 -0.337172 2.81362
4.46443 -0.454483 2.69461
1.0866 0.475432 -2.22875
1.16347 0.407943 -2.03499
1.35503 -0.563895 -1.93182
2.66363 -1.11666 -1.64324
0.971358 0.260605 -1.6932
-0.738671 1.2818 -1.72224
0.9953 0.671913 -1.76152
1.55501 -0.528088 -1.74828
0.821288 0.518441 -1.61976
0.867923 0.410313 -1.63902
0.48946 0.801503 -1.50273
1.65918 -0.630626 -1.45912
0.921238 0.736312 -1.22732
-0.279959 1.05786 -1.32324
-0.0986907 1.08951 -0.740518
0.528814 0.866432 -0.345797
2.68765 -0.749131 -0.182509
0.320658 1.52722 0.476152
2.59966 -0.437813 0.420121
0.446183 1.70902 1.02457
2.05145 0.957134 0.972286
2.32477 0.0341451 1.81289
4.24806 -0.264486 2.68183
4.26949 -0.334231 2.65409
4.18882 -0.351297 2.73864
4.04739 -2.255 3.2103
-0.65164 -0.0312137 -3.00788
0.372377 0.786059 -1.09779
-1.02887 1.41447 -1.2498
1.41254 -0.293634 -1.17359
0.987926 0.573431 -0.330612
3.36664 -1.14095 -0.465422
1.66952 0.458721 0.280684
2.97361 -0.36861 0.968256
2.35202 -0.236008 0.998076
2.7271 -0.235401 1.27298
2.12573 1.68366 2.09702
2.98793 -0.182919 2.00893
2.93038 -0.0628539 2.23221
-0.00894907 -0.0674058 -3.06044
0.876329 0.160693 -1.6391
0.761746 0.712484 -1.50367
2.11494 0.174657 0.0289052
2.3509 -0.276173 0.294198
2.67084 -0.228784 1.31178
4.09787 -0.670737 2.39325
3.97943 -0.493664 2.5002
0.338712 -0.306317 -2.99554
-0.167261 -0.0588161 -3.00592
0.159767 0.897298 -0.824503
-0.747019 1.31012 -0.894018
1.01919 0.689237 -0.354671
2.27407 -0.367894 0.337361
4.16386 -0.288612 2.52942
-0.0637113 1.03139 -0.956743
-0.0468726 1.22515 -0.748759
0.235822 1.29482 0.276887
3.14322 -0.449888 1.21838
4.28143 -0.850239 2.57788
0.0803162 0.810685 -2.34949
2.87277 -0.827966 -0.344074
1.16769 0.752925 0.433684
4.06117 -1.23204 2.78533
1.40299 0.0587589 -1.22771
2.42673 0.246597 1.70855
0.720577 0.506242 -0.39116
-2.0666 0.708604 -3.28499
-2.03215 0.724614 -3.24107
-2.0243 0.57605 -3.17214
-0.432539 0.120671 -3.13856
-2.35298 0.907717 -2.75767
-0.288003 0.107476 -3.06063
-0.17796 -0.0764126 -3.07446
0.248244 0.459266 -2.61391
0.559804 -0.572262 -3.08348
0.987861 -0.389494 -2.76841
2.12078 -1.13065 -2.42838
-0.80329 1.48377 -1.27011
2.51772 -1.28529 -2.33519
2.47522 -1.2094 -2.39237
2.60204 -1.29275 -2.55448
0.846333 0.618767 -1.45154
2.86058 -1.36405 -2.42872
0.702494 0.702258 -1.39384
-0.0887374 0.996301 -1.15016
0.814982 0.512383 -1.33334
1.29044 -0.320385 -1.71045
1.78382 -0.604913 -1.52223
3.80257 -1.80683 -1.99888
1.60268 -0.571803 -1.42826
2.95667 -1.28153 -1.76216
3.02133 -1.27589 -1.66513
2.74963 -1.02066 -1.30819
0.822011 0.823633 0.0905861
0.960516 0.764097 -0.00114819
0.393225 1.15695 0.229122
3.0524 -1.04075 -0.887938
2.70087 -0.931854 -0.887899
1.22206 0.423562 0.23792
2.3799 -0.574271 -0.338909
1.37644 0.542734 0.343332
1.00568 0.735169 0.425398
2.74099 -0.669225 -0.477446
0.202237 1.89174 1.13356
1.39607 0.523869 0.401804
2.14272 2.83273 1.28697
0.703394 1.50826 1.24443
1.33659 0.591529 0.646785
3.66549 -1.97303 -0.801836
1.61801 0.363057 0.482239
0.977472 1.50501 1.16547
2.38315 2.35067 1.39171
1.31324 1.37612 1.17797
2.26327 2.41613 1.58938
2.51988 -0.60636 0.229705
2.60423 -0.590151 0.310538
3.52619 -0.96208 0.0136438
2.39005 2.42904 1.57525
2.81258 -0.569236 0.397426
2.07002 1.02948 1.01309
2.0419 0.987846 1.14273
2.61562 0.656454 1.31393
2.95663 -0.699063 0.53368
2.94269 -0.606903 0.667193
2.09724 1.00743 1.57133
2.65169 0.976898 1.69727
3.551 -0.651717 0.704156
2.57593 -0.261342 1.32897
3.3341 -0.315341 1.97825
4.01435 -1.8909 1.2418
3.98067 -0.300851 2.64964
-2.18129 0.783098 -3.25007
0.650142 0.230841 -2.37861
0.422204 0.683331 -1.62712
-0.0470104 1.07679 -1.51341
-0.150229 1.235 -1.37568
2.34629 -1.19349 -2.24233
0.953956 0.849064 -1.4845
0.899454 0.478134 -1.45504
1.45573 -0.37295 -1.47748
2.01453 -0.666072 -1.45582
1.77023 -0.386801 -1.41259
0.645187 0.792657 -0.64668
-0.342077 1.55114 -0.297644
-0.173629 1.4542 0.152114
1.93752 -0.406439 -0.921191
0.858917 0.799087 -0.139755
2.28264 -0.700338 -0.710663
2.75118 -0.897819 -0.689257
0.511773 1.44134 0.378278
1.89349 -0.241855 -0.266717
2.79853 -0.934745 -0.584865
1.40532 0.480456 0.225554
2.91458 -0.937318 -0.709456
0.827092 1.02742 0.852622
0.557963 1.73363 1.01327
2.44379 -0.427617 -0.0150401
2.22861 2.82767 1.57214
3.46054 -1.00616 -0.306022
2.61052 -0.404755 0.117194
2.24147 -0.0238095 1.06339
2.19981 1.20591 1.80779
2.67752 -0.235944 1.22775
2.91978 -0.352148 1.12144
2.50687 0.822409 1.77944
2.13415 1.67308 2.17564
2.60629 0.111592 1.50417
3.2255 -0.412877 1.51062
2.59262 0.349579 2.39466
2.81619 0.00964773 2.20605
3.44642 -0.407337 1.88084
-1.65408 0.50603 -3.39137
-1.85868 0.62155 -3.19959
0.271994 -0.381174 -3.01352
-0.482354 1.27223 -2.11487
0.352265 -0.263278 -2.7762
0.873335 -0.435738 -2.60661
1.56269 -0.736269 -2.56094
2.36549 -1.05525 -2.45903
1.32592 -0.674538 -1.7716
0.675644 0.499914 -1.38021
2.84724 -1.03032 -1.46614
0.158524 1.07057 -0.295554
0.764569 0.995413 -0.112567
3.05564 -1.24796 -0.972375
0.505568 1.33592 0.204087
0.227246 1.1966 0.126541
0.862712 0.956048 0.18496
2.07004 -0.298926 -0.319271
1.52826 0.402221 0.439492
1.32267 0.704744 0.709038
2.29022 2.57858 1.31677
1.25015 1.42485 1.30902
2.01128 1.01375 1.15997
2.80738 -0.361569 0.873147
2.61175 -0.220146 1.11689
2.71364 -0.260062 1.06483
2.61621 -0.154747 1.81298
3.86139 -1.4101 1.91555
3.90634 -0.351524 2.43065
3.92859 -0.309488 2.48182
-0.309455 1.25274 -2.29678
2.88874 -1.2776 -2.05202
3.36115 -1.43134 -1.75505
0.23158 1.19129 -0.367542
0.470544 0.987731 0.230866
0.434836 1.38759 0.410338
2.42945 -0.754134 -0.626276
1.60978 0.549273 0.443824
1.27399 0.499635 0.720034
0.845189 1.5465 1.05772
2.316 0.723453 1.2125
3.36643 -0.711415 0.407876
3.47588 -0.911457 0.448063
2.90005 -0.441886 1.43045
2.48851 0.214678 2.47152
3.90368 -0.222888 2.47271
4.06714 -0.342592 2.67737
-0.400813 0.107192 -3.19809
0.135708 -0.398374 -3.04584
0.569078 0.852238 -1.53758
1.27679 0.344657 -1.13361
1.42962 0.294805 -1.01902
2.49235 -0.916714 -1.69249
0.937602 0.81428 -0.306488
2.11311 1.1039 1.73589
2.09464 1.4435 2.12736
4.15207 -0.435631 2.53382
4.28428 -0.310163 2.7047
-1.12033 0.251158 -3.26595
2.362 -1.11999 -2.05687
1.43889 0.169894 -1.00014
0.848512 0.542345 -0.470685
0.333227 0.995823 0.0687439
1.51754 0.46257 0.394352
1.5724 0.372863 0.278083
4.15582 -0.360682 2.58385
3.02704 -1.20153 -1.76419
1.25808 0.548345 0.647856
3.97467 -0.471719 2.55213
0.289717 1.10066 -0.402446
2.17665 0.347886 0.12381
2.07418 -0.194885 0.54234
-0.179895 1.20753 -1.15095
2.53491 0.248453 1.74109
2.65974 -0.0534644 1.44058
-2.91715 0.76296 -4.10567
-1.65723 0.569916 -3.32212
-1.58758 0.66599 -3.1697
-0.00628378 0.0689352 -3.14374
-0.0331451 -0.00376042 -3.14748
-0.355726 1.11583 -1.3157
0.860403 0.564201 -1.62676
1.1395 -0.612713 -2.7368
1.0115 0.675273 -1.44139
0.797189 0.688483 -1.31916
1.37594 -0.46131 -2.03346
1.71058 3.24652 1.44757
0.876797 0.87678 -0.219774
1.6322 -0.542668 -1.39767
2.3099 -1.0244 -2.16052
1.06948 0.415073 -0.55082
0.0293295 1.55708 0.620735
0.295503 1.84516 1.16115
2.21596 2.54241 1.37969
2.87539 -1.12727 -1.62576
0.941033 1.59705 1.15002
1.38624 0.496626 0.304586
1.47794 0.559931 0.443453
1.49582 0.447811 0.440763
3.56578 -1.26438 -0.989717
3.41305 -1.18598 -0.77395
3.06699 -0.906575 -0.462343
2.45704 1.01632 1.36223
2.75016 -0.605266 0.258359
2.42831 0.931826 1.70683
3.18056 -0.386248 1.48698
-2.73337 0.945292 -3.97854
-2.08111 0.747154 -3.12433
-2.05447 0.659614 -3.17622
-0.512404 1.38445 -2.15003
-0.336497 1.21257 -2.173
0.054011 -0.0621656 -3.19029
0.0236716 -0.190451 -3.16587
0.336414 -0.355156 -3.0568
0.0351211 0.785187 -1.81423
-0.0898885 1.135 -1.43462
0.489772 -0.376701 -2.63579
-0.157608 1.28701 -1.31992
1.31441 -0.707342 -2.50776
1.67687 -0.911157 -2.58846
1.40084 -0.737646 -2.30234
1.45083 -0.793861 -2.43998
1.26992 -0.574346 -1.8615
1.43502 -0.603227 -1.77001
-0.145437 1.41055 0.0875967
-0.128103 1.37816 0.160301
-0.229957 1.67561 0.654835
0.849399 0.904263 -0.0695492
0.510095 1.34913 0.391779
2.16186 2.9022 1.39454
0.935932 0.971658 0.209545
0.754873 1.20023 0.765205
1.23827 0.428268 0.194739
2.36832 2.38853 1.51032
2.47053 -0.981786 -1.25138
1.34656 0.653222 0.323712
2.39906 0.441054 -0.065889
1.51009 1.25586 1.06674
1.49148 1.18605 1.17802
-2.76725 0.969285 -3.8454
-0.277357 1.26988 -2.44249
0.580066 0.829512 -1.45697
0.882565 0.507078 -1.53783
2.39091 -1.15578 -2.33145
0.816067 0.895528 -0.248345
0.470759 1.32363 0.417559
0.618824 1.7793 1.1315
0.839141 1.07105 0.767787
0.830189 1.55748 0.940574
0.954317 1.48486 1.17027
1.98252 0.928274 1.07796
2.06321 0.652566 1.05087
3.54223 -0.667297 0.727382
2.43288 0.241023 2.09454
3.01518 -0.489262 1.44045
3.99244 -0.247796 2.54694
-1.54436 0.453911 -3.21429
-0.302559 1.0935 -2.18149
0.708798 0.495769 -2.65498
0.32225 0.932746 -0.63258
1.63893 -0.413216 -1.24209
0.710129 1.07806 0.664838
1.49995 1.22103 0.951567
1.23514 0.556336 0.595819
2.67046 -0.545355 0.309006
1.86343 1.53581 2.03475
2.93072 -0.297565 1.39242
4.03478 -0.232227 2.57337
4.24284 -0.252215 2.69885
4.22781 -0.389204 2.64247
0.1765 1.08888 -0.586184
0.973354 0.582121 -1.0073
2.31009 0.303657 -0.0656908
1.25487 0.593843 0.597033
3.03817 -0.284361 1.11032
3.98152 -0.434063 2.65356
-1.03763 1.51909 -0.59925
1.40586 0.251165 -1.07602
2.12918 2.88289 1.29544
1.05928 0.521244 0.251872
2.13495 0.35346 0.262126
2.55333 0.584125 1.24518
-0.286991 1.13029 -0.694555
1.48738 0.0259609 -1.03353
0.442018 1.06556 0.0291335
0.282738 1.28205 -0.285516
0.265031 1.1163 0.173265
0.387409 0.932615 -0.981061
0.919323 0.18794 -1.52319
0.831777 0.751371 -0.732707
-0.875965 0.305399 -3.25843
1.84558 3.24136 1.23863
-0.178229 1.08652 -1.4596
-0.113325 1.35264 -1.2114
2.20166 2.77506 1.613
0.267755 -0.311136 -3.1518
-0.317004 1.43969 0.178835
-0.191142 1.42083 0.23544
-0.277062 1.59266 0.0530035
0.877174 0.703634 -1.30059
-0.365931 1.56813 0.52641
0.0738903 1.53182 0.780897
0.529483 0.913698 0.059527
0.745727 0.838669 0.0690497
0.784085 0.915241 0.602097
0.928567 1.42135 1.12891
1.56577 -0.877477 -2.7209
0.87546 1.04002 0.723963
1.31447 -0.573132 -1.8152
1.63205 -0.932366 -2.41406
1.61553 -0.55118 -1.58588
1.37516 0.395263 0.301073
1.30696 0.622105 0.461882
2.45865 0.43125 -0.0178808
2.0747 0.981973 1.08489
2.14407 0.931263 1.26891
1.95859 -0.484043 -0.871835
2.09472 1.19636 1.85632
2.98068 -1.32795 -1.45638
2.68977 -0.152573 1.18524
2.67477 -0.0817865 1.45562
3.0036 -0.43946 0.99018
3.161 -0.378084 1.48751
3.46433 -0.733398 0.725149
3.94503 -2.20395 -0.860743
4.16693 -0.326402 2.71115
-2.43397 0.913515 -3.53221
-0.885576 1.52141 -1.40147
-0.0464984 0.780721 -2.27744
2.13326 2.97084 1.56648
-0.175595 0.957102 -1.14232
-0.197986 1.35122 0.0305812
0.3807 -0.40342 -3.06457
-0.19632 1.65726 0.640824
0.240862 1.87878 1.05593
0.334936 0.962473 -0.243294
0.743716 0.795177 -0.203862
0.897274 0.858864 -0.224337
0.816503 0.941838 0.0521375
0.982328 1.40172 1.1954
1.56739 -0.74223 -2.30937
1.49088 -0.837269 -2.46797
1.29846 -0.304567 -1.59728
1.49408 -0.433796 -1.81767
1.40223 -0.512559 -1.89292
1.27012 0.452573 0.109889
1.43309 0.525324 0.265503
2.15476 -1.05105 -2.50533
2.23944 -1.0025 -2.52211
1.91355 1.01604 1.1682
2.0414 -0.353521 -0.351625
2.434 -0.633409 -0.525519
2.51009 -0.350121 0.235916
2.44975 -0.296893 0.639432
2.71641 0.116919 2.22093
3.5485 -0.83222 0.433561
0.307639 0.428801 -2.32656
-0.935177 1.52264 -0.264716
0.524472 0.806178 -1.4564
-0.0878358 1.3444 -0.183186
-0.200789 1.42374 0.117776
0.635084 0.882028 -0.657453
0.434884 1.19591 0.39144
0.937269 1.06151 0.723231
0.94309 0.939552 0.814525
1.47376 -0.622609 -2.49854
1.54838 1.2059 1.16151
1.92587 -1.01675 -2.33517
1.37996 0.588826 0.477128
2.46628 -1.25481 -2.48491
2.11767 1.58218 2.30483
1.8614 0.339178 0.568108
2.49494 0.613022 1.05321
2.56092 -0.00437445 1.6734
3.84235 -0.396839 2.5291
3.90077 -0.302257 2.51684
3.79435 -0.253491 2.43398
4.2722 -0.377787 2.72987
0.076272 -0.195734 -3.19917
0.923984 0.624682 -1.4415
1.31336 0.247761 -1.07067
0.964966 0.986442 0.331144
1.98531 -1.07133 -2.19132
1.57996 0.43968 0.689104
2.63816 -0.458759 0.0540421
3.0442 -0.592658 0.747607
3.15241 -0.478687 0.898923
2.80266 -0.32599 1.36738
3.15733 -0.326348 1.45237
4.06443 -0.334144 2.43025
0.282737 1.07638 -0.475257
1.49974 0.303385 -1.18672
2.32817 0.246153 0.108241
3.01113 -0.294915 1.27691
3.93204 -0.172154 2.78293
4.17823 -0.48948 2.21742
4.31987 -0.380554 2.70164
0.214098 1.34637 -0.191644
0.517028 0.95837 -0.311864
1.21891 0.51611 -0.102517
-0.019859 1.15477 -0.930773
0.973148 -0.376095 -1.81343
0.253679 1.32387 0.104891
0.170184 0.999894 -0.431285
0.841324 0.573125 -0.296636
-0.113702 1.41405 -0.643997
4.11253 -0.416669 2.45795
0.300946 1.03261 0.137762
-0.229651 1.00886 -2.27335
-2.22553 0.784294 -3.22429
-0.530985 1.51713 0.146549
-0.366108 0.821523 -2.71318
-0.106949 1.32979 -1.15188
-0.313138 1.54972 0.537983
-0.218875 1.4748 0.288562
-0.14599 1.46476 0.548175
-0.357082 1.51662 0.173977
-0.0274975 1.32816 0.0781032
0.505699 1.59491 0.990839
-1.04622 0.266018 -3.39874
-1.02912 0.252487 -3.29786
0.304612 1.20461 0.0551402
0.361027 0.375925 -2.75467
0.730713 1.07321 -0.208038
-0.0681381 0.14346 -3.06189
0.580153 1.04831 0.337911
0.621913 0.330531 -2.37582
1.00031 0.782723 0.0791481
0.826276 0.756325 0.112585
0.772159 0.902878 -0.111489
1.04892 0.908834 0.278347
1.93738 1.48158 1.978
2.10365 1.39023 2.12679
1.0161 0.718419 0.698626
1.26727 0.188817 -1.09893
2.14489 1.21036 1.84104
1.26597 0.454718 0.149665
2.26214 0.31649 0.0369466
1.57132 -0.437723 -1.47688
1.79134 -0.733412 -1.88954
1.97891 -0.401206 -0.550933
2.13104 -0.931039 -2.39258
2.79541 0.0415247 1.92848
2.27841 -1.16582 -2.0747
2.56984 -0.4951 0.315445
2.59123 -0.355944 1.38239
2.84245 -0.255386 1.41753
3.4514 -0.827385 0.468549
-1.0567 1.40553 -1.49619
-0.8503 1.51397 -0.817113
-0.137271 1.07306 -1.50947
-0.327861 1.49611 0.0925242
-0.344573 1.51589 0.0972919
-0.22801 1.59841 0.578818
-0.233984 1.32733 -0.0991579
-0.186769 1.62749 0.674384
-0.242004 1.41784 0.129623
-1.08029 0.114653 -3.21859
0.0291252 0.850848 -1.15261
0.266977 0.685218 -2.09041
0.2386 0.864967 -0.374695
0.297982 0.578117 -2.63702
-0.193463 0.0574586 -2.99381
0.710117 0.984323 0.205484
0.74655 1.04882 0.0749846
0.698649 0.984261 -0.161599
0.807691 1.08012 0.40035
0.806118 0.798558 -0.166928
0.949843 0.65786 0.693216
0.525332 -0.290476 -2.73522
2.05842 1.1613 1.9353
1.99149 1.18417 1.90396
2.17282 0.964758 1.10046
2.20057 0.422754 0.9071
1.44778 -0.728579 -2.52801
2.17153 -0.160476 0.97702
2.28613 -0.335338 0.0488204
2.56827 0.116575 1.93176
2.69535 -0.139262 1.77138
2.70357 -0.224934 1.83728
2.49026 -0.574924 0.147016
2.91471 -1.05947 -1.38926
2.91069 -0.32112 1.10189
2.8066 -0.399582 1.42333
3.05293 -0.203705 2.04206
3.90598 -1.84954 1.22958
-1.0367 1.4317 -1.39156
-0.349472 1.59858 0.764096
-0.367605 1.45048 0.0817319
0.422043 0.26645 -2.5119
0.669228 1.12301 0.546944
1.04676 0.748824 -1.04759
0.802476 0.874648 0.245564
1.5799 1.31069 1.13618
0.314441 -0.163145 -2.76889
2.11074 1.09504 1.92348
2.06899 1.00218 1.26322
2.393 -0.390595 0.31991
3.2164 -0.558403 0.806108
3.22402 -0.225784 1.48776
3.52532 -0.915312 0.345013
3.50926 -0.730098 0.717064
4.07007 -0.331197 2.59893
3.65881 -2.20992 0.715578
0.206018 1.10656 -0.140929
0.382969 0.4118 -2.59588
0.399861 0.324829 -2.5543
0.67405 0.850656 -0.534156
1.51296 1.2413 1.126
2.10179 1.18911 1.67035
1.51918 0.200178 -1.3197
1.84313 -0.803543 -2.36896
2.43625 -0.527659 -0.0854786
2.5187 -0.0950659 1.60135
2.70428 -0.0255782 1.55055
2.58212 -0.621476 0.0549118
2.64331 -0.653294 -0.0889497
2.80124 -0.324214 1.19768
3.18456 -0.313609 1.69519
3.85675 -0.360957 2.44822
4.0266 -0.138556 2.72605
-0.80508 1.22564 -1.84365
0.384419 1.45647 0.173819
1.47585 0.555711 0.625816
2.59969 -0.0428151 1.97167
2.43 -0.40097 0.35426
2.5504 0.123681 2.03003
2.59609 -0.16683 1.625
2.62066 -0.421042 0.102373
2.59498 -0.496615 0.262601
3.89474 -0.435809 2.49307
4.24736 -0.263828 2.48304
4.31771 -0.35977 2.56783
4.22954 -0.8232 2.72367
-0.328091 0.0239897 -3.12049
3.9549 -0.907617 1.11351
3.61866 -2.08067 -1.01176
0.396631 0.913147 -0.253185
0.78756 0.944667 -1.17772
2.45831 -0.425386 0.0506434
-1.1881 1.44318 -0.658032
0.220665 1.06398 -0.00519554
0.51949 1.04472 -0.140911
0.6299 0.963548 -0.287775
0.817591 0.715497 -1.16301
0.86356 0.712342 -0.685025
1.98345 1.39627 2.19739
2.02642 1.34076 1.9606
2.91966 -0.26358 1.2953
4.15481 -1.09811 2.52475
4.21564 -0.910438 2.63513
2.10739 -0.135163 0.312122
2.29313 2.54822 1.51969
0.406184 1.69087 0.932683
-0.118415 1.56879 0.769212
-0.285827 1.49136 0.220305
1.9485 1.52555 1.8335
-2.50065 1.02401 -3.58036
-2.18099 0.833778 -3.47954
0.814686 1.00246 0.510744
1.99692 1.17718 1.83132
0.688611 1.0226 0.121706
0.928509 0.859622 0.0176694
0.905775 0.854484 -0.325436
0.27275 0.788953 -2.14531
0.325235 0.7732 -2.22163
0.954685 0.728496 -1.48857
-1.07963 0.355019 -3.30766
1.33951 0.532396 0.328417
0.811258 0.258145 -2.69151
-0.239107 -0.0708425 -3.18799
-0.212625 0.0450324 -3.0965
-0.143821 0.0851502 -2.98344
0.134106 0.0205954 -3.16677
0.963562 0.259852 -2.23769
2.52276 -0.138641 1.6911
2.62673 -0.112701 1.17105
3.38978 -0.184607 2.34689
2.47511 -0.465598 0.146093
3.27387 -0.342953 1.44396
1.81949 -0.720797 -1.86823
3.37281 -0.397229 1.84664
3.98125 -0.230507 2.67881
3.80739 -0.604483 1.91461
2.40329 2.47735 1.64452
1.99132 1.56883 2.13524
1.43778 1.3044 1.0469
0.214367 1.18734 -0.415165
2.10795 1.15427 1.97484
0.972139 0.851855 0.284943
0.928432 0.758014 -1.50391
-1.00616 0.186586 -3.10645
2.29676 0.759572 1.09967
2.22454 0.327118 0.773192
0.139007 -0.198447 -2.81362
2.67998 -0.12187 1.96001
2.35553 -0.641383 -0.254958
2.95994 -0.446167 1.16867
2.38224 -0.542137 -0.507464
2.28627 -0.673351 -0.795931
2.72145 -0.78714 -0.258338
2.47948 -0.871427 -1.44428
3.36086 -0.825013 0.346961
2.18241 1.41127 2.07647
0.641531 0.850886 -1.43671
1.04298 0.532832 -0.168381
2.66941 0.827344 1.21638
1.75758 0.355056 0.505543
-0.168659 -0.0820086 -3.11036
0.381698 -0.409671 -2.54
2.50898 -0.483724 0.313839
2.51518 -0.432757 0.0532986
4.04945 -0.24345 2.55376
4.07278 -0.291641 2.50918
4.04607 -0.392482 2.50248
2.70189 -0.956949 -1.22825
1.48548 0.463556 0.35416
2.06315 0.376944 0.688136
2.51533 0.371215 2.4004
2.58992 -0.0259239 1.99858
1.06217 -0.247981 -1.97007
2.5452 -0.421603 0.0176725
2.5888 -0.585513 0.0420066
3.16683 -0.390778 1.5041
3.88037 -0.161593 2.71555
1.95978 -0.870676 -2.26616
4.05314 -0.329287 2.53644
3.46931 -0.846188 0.719429
0.166374 1.16759 -0.0581802
2.65581 -0.53524 0.25272
2.56102 -0.43349 0.184185
3.94854 -0.354558 2.59172
3.26401 -1.5151 -1.77972
0.374157 1.05102 -0.605596
0.232429 0.979637 -0.192027
0.309137 0.955172 -0.0838103
0.775406 0.728707 -0.83755
0.975156 0.64172 -0.747166
1.11111 0.54037 0.409175
3.25155 -0.391285 1.67189
3.91012 -0.205476 2.49708
-0.303831 1.24644 -1.16486
0.21724 1.24398 -0.0689193
-0.258262 0.973934 -1.03788
1.19733 0.335148 -1.30785
4.30813 -0.261779 2.64319
3.55792 -2.17774 -1.38435
0.0947135 1.1253 -0.436865
3.91836 -1.129 1.46903
-1.28069 1.62193 -1.75537
2.92023 -0.330885 1.34957
4.14783 -0.550794 1.99307
2.12874 -0.146152 0.394035
1.72825 0.290956 -0.0481288
2.13484 1.33766 2.03846
0.619058 1.60414 1.07026
0.889633 1.40014 1.07631
0.239939 1.70733 0.347329
0.496633 1.47482 0.402187
0.596686 1.16969 0.538499
0.864577 0.849841 0.589709
0.92104 0.843042 0.0644659
2.47521 0.23745 2.16049
2.62328 0.073031 2.21533
1.7264 0.413342 0.877841
2.76252 0.112537 2.19314
1.15581 0.357441 0.0084035
0.644919 0.660862 -1.36614
0.903558 0.575821 -1.36456
2.55318 -0.237752 1.20981
-1.10446 0.296202 -3.28618
-1.01988 0.324964 -3.26957
3.14884 -0.451867 1.50058
2.6005 -0.4694 0.144019
2.96722 -0.651283 0.411479
1.44047 -0.563791 -1.84264
2.83567 -1.2862 -1.46187
2.12406 2.8427 1.30193
2.35894 2.30591 1.47554
2.27521 2.24611 1.44103
2.14313 1.30577 1.99153
0.534855 1.48826 0.302954
0.554701 1.51618 0.521582
-0.197171 1.2021 -1.09658
3.4109 -0.0183013 2.43561
0.262462 0.810584 -2.23481
2.85683 -0.186324 1.49057
2.73564 -0.201309 1.44278
2.73418 -0.139217 1.39998
3.39588 -0.318666 2.05604
2.46931 -0.265402 0.280146
-0.103914 -0.0192114 -2.98218
2.63712 -0.541397 0.0571225
2.41143 -0.696568 -0.691628
2.31644 -0.716026 -1.15619
0.583999 1.65498 1.0955
0.533553 1.43208 0.468585
0.887256 1.05011 0.689521
2.81509 0.0216185 2.19603
0.652972 0.794568 -1.45006
2.42336 0.000320075 1.17759
4.14647 -0.361795 2.46514
2.64979 -0.345264 0.986494
3.46597 -0.397628 1.98053
3.23735 -0.505198 1.72638
3.44627 -0.554788 1.70129
0.714014 0.310479 -2.39441
2.33021 -0.410022 0.225294
2.36474 -0.36447 0.309805
1.23816 -0.486792 -1.92867
3.50426 -0.733257 0.767901
3.61604 -0.62159 0.714121
2.61381 -0.845555 -0.898055
1.91169 -0.895661 -2.1975
0.461678 0.986123 -0.189658
1.44039 0.575923 0.425052
3.95115 -0.35889 2.59509
-1.04871 0.201124 -3.18844
3.20196 -0.444447 1.48815
-0.21428 0.0961247 -3.00486
1.53088 -0.749604 -2.43448
2.34219 2.74228 1.44483
4.09355 -0.367512 2.53085
2.26973 0.154971 -0.0101008
4.14885 -0.456548 2.59048
3.35303 -0.928561 0.113603
0.875027 0.781065 -0.759457
4.19476 -0.282167 2.48486
1.47089 -0.0759143 -0.328376
4.14923 -1.2599 2.79106
0.342343 0.934192 -0.359824
4.48341 -0.531722 2.71524
0.385623 1.19197 0.110443
-0.0477508 1.07223 -1.10983
0.747878 0.760688 -0.78626
0.116398 0.909367 -0.566848
1.22712 0.256043 -0.648046
1.35674 0.30332 -1.42933
4.10261 -1.04663 2.61896
2.35516 2.66828 1.55091
2.24885 2.53235 1.64728
2.17484 2.75639 1.31745
2.40204 2.30163 1.4561
0.125053 1.79329 1.0314
0.510667 1.72466 0.920562
2.53304 0.8952 1.6515
0.646271 1.36248 0.551251
0.624375 1.22843 0.625938
0.455568 1.38316 0.323379
2.19998 0.766264 0.959092
2.73336 -0.00389663 2.0974
2.52768 0.779292 1.06498
4.20829 -0.456196 2.50648
2.97597 -0.211875 1.80637
2.33642 -0.0775968 1.44438
2.2817 0.356753 0.756669
2.36747 -0.220374 1.14312
-0.896984 1.41908 -2.19545
0.5766 0.887188 -1.41616
0.849312 0.728384 -1.38859
0.983635 0.598563 -1.45705
0.782383 0.602486 -1.20717
0.870027 0.6149 -1.32312
0.836346 0.609197 -1.53367
2.55771 -0.402155 0.251407
3.49707 -0.775135 0.799299
1.37135 -0.300882 -1.40153
-0.999369 0.246188 -3.31465
-0.109716 0.0895064 -3.08619
-0.339939 0.0081693 -3.29446
-0.263699 0.0722358 -3.26349
-0.0989728 -0.0769336 -3.08853
4.02749 -1.82576 1.16474
0.347986 -0.31642 -3.11001
2.152 -0.932369 -1.67049
2.97829 -1.40385 -1.99544
1.68471 3.58256 1.83621
2.28803 2.69935 1.6431
2.40604 2.44145 1.48102
2.30499 2.35179 1.33262
2.4893 2.33818 1.28014
2.07734 1.22992 2.02871
0.243272 1.51433 0.379439
0.509885 1.57263 0.384958
0.50488 1.39146 0.423641
0.522788 1.39313 0.358487
0.440338 1.53335 0.344597
2.68933 0.248639 2.15465
2.78333 0.0770147 2.13435
2.60027 0.0157424 2.15807
3.04993 -0.194025 2.24495
4.17516 -0.369461 2.66314
3.21882 -0.292187 1.87347
1.48567 0.402685 0.666052
2.99448 -0.27144 1.79284
2.69025 -0.230446 1.39517
3.35592 -0.379914 1.88458
2.55386 -0.18079 1.39454
3.49651 -0.40828 1.60281
2.73894 -0.27494 1.03674
-1.89063 1.09966 -2.10512
2.8931 -0.597892 0.900614
2.35544 -0.236507 0.376211
3.44994 -0.611854 1.02808
1.48531 -0.0475637 -0.403457
1.30789 -0.0145438 -0.585499
2.55842 -0.429854 0.240822
3.50187 -0.874965 0.459613
3.02564 -0.845209 0.0862707
0.929031 0.095985 -2.24966
0.874914 0.123772 -2.27735
0.796893 0.480526 -2.31372
0.68878 0.417326 -2.68255
3.7692 -1.03236 0.520929
0.068796 0.0639928 -2.7939
-0.25191 0.0626399 -3.19362
2.46792 -0.871543 -0.752535
2.77896 -0.777171 -0.773946
2.16438 -0.651663 -1.04666
2.30142 -0.727139 -1.24984
1.36326 1.36299 1.10012
0.394198 1.47774 0.205495
2.79053 0.0276237 2.26536
0.680108 1.20592 0.378606
0.347806 1.29217 0.0635109
3.32062 -0.484276 1.8248
1.35415 0.520688 0.180986
2.33007 -0.0956682 1.08903
2.74168 -0.280096 1.47668
3.29782 -0.409185 1.59004
3.71798 -0.60167 1.9271
2.69537 -0.232896 1.09026
2.21718 0.225832 -0.0686393
2.18758 -0.347816 0.118333
3.12264 -0.49307 0.902639
2.17693 -0.286774 -0.136366
2.4367 -0.451439 -0.0717085
3.57873 -0.85406 0.827295
0.815296 0.386477 -2.40044
2.39451 -0.645136 -0.470618
-0.336409 0.0543637 -2.95664
-0.0846851 -0.0226935 -3.29093
2.82281 -1.37758 -2.35146
2.14035 1.89747 1.42251
2.00426 1.05893 1.8892
0.676175 1.49763 0.399148
0.512374 1.18362 0.512056
3.26417 -0.361673 2.19716
2.17298 0.429908 0.830999
2.59767 0.0368972 1.39256
1.36748 0.524784 0.256235
0.638018 0.851722 -0.271789
2.4296 -0.373467 1.1652
2.51553 -0.0739161 1.21158
2.17931 0.0904201 0.421246
2.39903 -0.354445 0.269162
2.08008 -0.18304 0.00748671
3.73833 -0.801817 1.20594
1.36196 -0.408059 -1.11824
0.228066 0.456821 -2.63704
0.777473 0.25193 -2.43035
-0.193775 -0.163919 -3.01005
1.51779 -0.730604 -2.47078
1.31633 1.31497 1.24215
4.12834 -0.354693 2.54479
2.84047 -0.292957 1.03277
0.923353 0.745835 -0.98166
2.24491 0.179875 0.0391878
0.996778 -0.527833 -1.89052
2.53567 0.0413889 2.30361
0.612251 1.25376 0.706779
0.529231 1.50248 0.292546
0.407123 0.738133 -0.813541
1.56647 0.221204 -0.538117
0.566892 1.43633 0.624848
-0.217138 1.38099 -0.182821
0.233916 1.13435 -0.149317
0.902575 -0.00190312 -1.82292
2.26653 2.6365 1.43153
2.22178 2.71576 1.45127
2.51709 2.37237 1.36414
2.3004 2.50341 1.11859
2.64381 0.408114 2.38014
2.13173 1.20147 1.66961
3.7322 -0.209346 2.49773
3.21953 -0.14614 2.16769
2.58009 0.128513 2.02343
2.52544 0.0319734 2.02758
0.0411889 2.09104 1.03556
3.2141 -0.227247 2.16092
3.60734 -0.14751 2.18087
4.11074 -0.498267 2.3845
3.66825 -0.419192 2.27185
2.6725 -0.0815144 1.732
2.34966 0.934831 1.12334
2.94067 -0.222105 1.64643
2.34934 -0.0865383 1.55041
2.62057 -0.055168 1.52903
2.67324 -0.144489 1.54355
4.00745 -0.686912 1.91371
2.33985 0.360408 1.2873
3.6744 -0.687945 1.93071
0.391243 1.58784 0.425751
0.645708 1.29382 0.494834
0.62358 1.38354 0.472347
0.771842 1.1474 0.606253
3.26266 -0.50074 1.74178
2.40245 -0.118346 1.35979
2.43455 -0.0595444 1.26506
0.431528 1.47932 0.285428
2.65988 -0.243854 1.51138
2.57341 -0.0979563 1.33531
2.14003 0.350981 0.837553
1.97592 0.255269 0.654731
3.4456 -0.482498 1.49804
0.296384 1.26647 0.13167
0.409842 1.27465 -0.120977
2.87031 -0.38094 1.244
1.35457 0.25784 0.392494
1.32061 0.451908 0.274629
0.916423 0.577309 -0.243181
2.8769 -0.513164 0.75345
2.96989 -0.430397 0.674911
2.29334 0.264759 0.0284313
-0.187337 0.930006 -1.00334
2.68065 -0.501765 0.248443
4.00359 -1.97122 1.29168
-0.346199 1.31647 -1.57945
-0.710533 1.15101 -1.62663
0.810787 0.601711 -1.20938
3.61655 -0.875473 0.439507
1.38832 -0.143849 -0.567368
1.43398 0.0017166 -0.597987
3.88287 -0.9628 0.411595
0.717899 0.703615 -1.3417
2.42909 -0.729769 -0.453143
3.374 -0.912412 0.0229062
1.40847 -0.278047 -1.21751
1.42254 -0.366764 -1.21135
1.53126 -0.284134 -1.2385
1.77684 -0.489535 -1.10869
0.811911 0.241142 -2.17727
0.7854 0.255211 -2.67205
-0.214933 0.166727 -3.00532
-0.283896 -0.140417 -3.07332
-0.362926 0.158676 -3.18501
3.76468 -2.22576 -0.232878
0.36995 -0.194965 -2.88931
-0.0072941 0.124088 -3.07964
2.98995 -1.25356 -2.03349
2.22478 3.1869 1.48776
2.2938 2.40469 1.63554
2.20665 2.81021 1.25737
2.30879 2.32673 1.45549
1.97971 1.36605 1.83073
2.45154 0.968353 1.6756
2.15622 0.931993 1.61212
2.93084 -0.0104442 2.2196
2.84313 -0.0789498 1.99848
3.80671 -0.474229 2.34473
4.01231 -0.483932 2.17869
1.08994 1.42222 1.02101
2.01836 0.958953 1.27668
2.8003 -0.120453 1.88146
3.99422 -0.964363 2.37853
1.90685 1.05329 1.02635
2.95778 -0.263014 1.54072
0.408595 1.33321 0.50812
0.463055 1.59342 0.354011
3.39458 -0.430294 1.7855
0.499265 1.39083 0.482957
2.37145 -0.148816 1.33634
0.455995 1.56519 0.394243
2.69979 -0.120607 1.39021
3.16782 -0.464958 1.4869
3.87775 -0.51262 1.62904
3.09499 -0.379641 1.32381
2.12141 0.478396 0.781615
2.71097 -0.200502 0.956174
2.99985 -0.556255 0.837244
3.9402 -0.871979 1.14773
2.32479 0.40754 0.0145877
2.36908 -0.281719 0.266239
1.04287 0.407324 -0.560016
3.02683 -0.59221 0.330985
3.85977 -1.77122 1.3267
2.25811 -0.372545 -0.0179362
2.4889 -0.516165 0.312492
3.97435 -1.84129 1.25428
1.58757 -0.171575 -0.169902
1.48026 -0.0746311 -0.360353
2.37286 -0.477213 0.0180172
0.889894 0.530654 -1.17494
0.884189 0.675767 -1.24988
3.18496 -0.727716 -0.144019
3.28168 -0.881219 -0.234492
1.27222 -0.385721 -1.3614
1.22413 -0.292422 -1.14036
3.21845 -0.990922 -0.50252
1.43209 -0.415554 -1.44403
0.530858 0.332655 -2.48463
0.771391 0.136824 -2.35243
0.759699 0.317005 -2.24132
0.42202 0.422741 -2.60429
-1.37998 0.261877 -3.42852
-1.02113 0.374787 -3.33207
0.842319 -0.422508 -2.06016
3.33972 -1.14969 -0.779709
-0.286586 -0.161703 -3.09159
-0.217831 -0.00609681 -3.04501
-0.183266 0.0447838 -3.0923
1.37584 -0.731167 -2.25244
2.7982 -1.17559 -1.66496
2.39904 2.33795 1.53649
2.09958 1.25821 2.13238
4.09803 -0.372711 2.49973
2.89555 0.0314966 2.14676
2.85527 -0.146837 2.17366
3.3384 -0.26206 2.28957
3.66502 -0.373956 2.30642
2.43983 -0.108992 1.68071
1.81202 1.08335 1.16654
2.37521 0.808804 1.09971
0.556733 1.34959 0.446266
0.535331 1.50154 0.370317
0.519367 1.41856 0.306898
0.558592 1.43214 0.241196
0.53895 1.42736 0.261131
3.59558 -0.57007 1.61285
3.874 -0.856757 1.75541
3.37658 -0.53507 1.56341
2.61426 -0.0163116 1.30762
2.49281 -0.0838985 1.26452
0.362533 1.23918 0.0300772
1.3187 0.401498 0.500669
2.48978 -0.184829 0.741265
1.59432 0.41604 0.317083
2.59607 -0.267102 1.02339
2.54851 -0.406029 0.835201
1.17328 0.536812 0.185862
3.59088 -0.840687 1.09786
2.26481 -0.427028 0.239951
3.53691 -0.887502 0.75263
-0.310771 0.978265 -1.1731
3.41899 -0.898112 0.456237
0.865373 0.566152 -1.12814
0.675935 0.70976 -1.40936
0.839955 0.704303 -1.4147
3.19862 -0.783097 0.0966835
0.939171 0.483412 -1.33503
0.936767 0.450003 -1.50239
0.870137 0.562326 -1.42081
1.4265 -0.353606 -1.26674
3.18231 -1.19423 -1.06956
4.28485 -0.289086 2.43503
2.08366 1.0805 1.32913
3.18512 -0.0893454 2.19799
3.14607 -0.150558 2.09302
0.540598 1.4985 0.986012
3.71775 -0.525931 1.94071
2.34302 -0.0956592 1.43297
1.18153 0.604354 0.373099
0.141591 1.16732 -0.514212
-0.129096 1.1603 -1.3237
3.11113 -0.815232 -0.0513368
2.32365 -1.0766 -2.15412
3.72857 -0.367286 2.54728
0.526278 1.66369 0.924141
4.15374 -1.3569 2.44744
3.9776 -0.680449 1.82301
1.07186 0.578684 0.539936
2.88946 -0.272762 1.1706
2.45842 -0.412562 0.324288
0.446218 0.851493 -0.929283
2.56142 -0.407992 0.252901
0.983606 0.634298 -2.06398
1.05025 -0.298776 -1.98265
3.33952 -0.0743629 2.2692
2.50596 0.124458 1.94646
3.79841 -0.536865 2.20986
0.291916 1.62113 0.5574
0.589892 0.855307 -0.0999678
2.35142 -0.23618 0.372334
1.12924 0.498396 -0.557702
1.12961 -0.209693 -1.89396
2.537 0.0534031 2.24162
0.364049 1.61926 1.1353
1.40474 1.29488 1.13078
2.05748 0.814734 1.15141
2.01049 0.913003 1.15287
2.98625 -0.149762 1.33809
3.09781 -0.550523 1.0839
0.988724 0.394611 -0.357883
2.34083 -0.52585 0.0244149
0.389246 1.04151 -0.0144334
0.323368 1.23637 -0.063942
0.859985 0.777702 -0.480849
1.94662 0.382912 -0.231697
2.561 -0.478453 -0.0801607
1.52923 0.371952 -0.50813
0.265053 1.2622 0.374116
3.53015 -1.4785 -1.45154
2.29456 -0.988198 -1.59365
2.81571 -1.02035 -1.37389
1.06496 -0.344477 -1.85536
2.7579 -0.954767 -1.40721
3.33615 -1.19975 -1.14738
1.67837 -0.626042 -1.48925
2.13341 -0.756308 -1.17666
2.24379 -0.56667 -1.22124
3.20279 -1.06872 -0.912829
1.43592 -0.330048 -1.29196
1.81709 -0.632852 -0.937972
1.71619 -0.466368 -0.837687
0.936757 0.496488 -0.38311
1.7046 -0.099591 -0.299917
1.49581 -0.0621675 -0.329466
3.39254 -0.946304 0.143566
1.34792 0.348482 -0.305423
2.6817 -0.597934 0.0538919
2.83422 -0.651814 0.399536
2.92317 -0.627579 0.355463
2.60281 -0.546047 0.460475
3.61452 -0.910223 0.855055
3.43532 -0.7402 0.621411
1.45841 0.526165 0.398558
1.2318 0.633523 0.27846
3.05098 -0.43451 0.677027
2.47324 -0.27992 0.761201
2.80901 -0.376169 0.802067
3.00141 -0.468927 0.733962
0.358091 1.55152 0.170121
0.416299 1.36647 0.324507
0.618858 1.39346 0.338121
0.391899 1.53428 0.379259
0.539675 1.3542 0.512917
2.43402 -0.213115 0.928633
0.699243 1.20106 0.581614
2.23639 0.394536 0.729955
2.6291 -0.33383 0.986881
3.06836 -0.380883 1.04051
2.33286 0.0276279 1.25808
2.43081 0.76894 1.03905
2.13877 0.795288 0.953191
2.412 -0.0408269 1.37479
2.50985 -0.0221342 1.42413
3.54917 -0.569483 1.52805
3.71037 -0.758673 1.53435
3.68864 -0.59831 1.5103
2.74739 -0.00314883 1.64972
2.33727 -0.006026 1.64604
3.32586 -0.398295 1.75763
3.48603 -0.462142 1.69209
3.69773 -0.578949 1.83019
3.73058 -0.522739 1.72652
3.96561 -0.633998 1.82225
2.68763 0.00841086 1.72664
2.03415 1.77964 1.38553
2.55918 0.96905 1.53023
3.3226 -0.318844 1.92242
2.37964 2.15216 1.31601
2.07661 2.67928 1.24553
2.42334 2.51929 1.50248
2.16203 2.94255 1.41212
3.04736 -0.0822179 2.30103
4.00452 -0.557556 2.20091
2.50711 2.44745 1.82841
3.9343 -0.339835 2.52376
4.0883 -0.360241 2.73421
4.12662 -0.191871 2.65396
4.12327 -0.41238 2.70494
-0.18146 0.0918663 -3.11107
-0.13999 0.103899 -3.11433
1.48721 -0.746831 -2.52609
3.35079 -1.32826 -1.80369
0.810809 0.25555 -2.31756
0.8219 -0.273554 -2.11111
1.58325 -0.51478 -1.70376
3.22044 -1.15493 -0.876649
0.574198 0.775855 -1.47916
0.866015 0.752324 -1.46444
2.10224 -0.581036 -1.0309
2.19499 -0.591241 -0.890935
3.04904 -1.00425 -0.542859
0.201428 0.82314 -1.19949
2.31997 -0.666357 -0.450958
1.70823 -0.544657 -0.428097
2.66527 -0.55788 -0.277319
2.1716 -0.529296 -0.282274
1.94675 -0.364773 -0.330967
2.07906 -0.303135 -0.347416
3.35762 -0.949021 -0.0729862
0.261176 1.11624 -0.551985
2.61345 -0.65444 0.0473893
2.10755 0.237843 0.0384274
1.28592 0.390007 -0.0492525
2.40809 -0.466238 0.473831
0.28062 1.13292 0.0367782
1.60626 0.360846 0.608121
1.58448 0.39456 0.368281
0.557419 1.30712 0.280256
0.661958 1.32331 0.536519
3.53633 -0.889751 1.02615
0.690003 1.33327 0.549147
3.15139 -0.656235 0.904175
0.138219 1.49684 0.507686
2.52988 -0.259662 0.996851
0.599878 1.20558 0.630374
2.69363 -0.463683 0.923334
3.32804 -0.571301 1.08456
1.05265 1.45714 0.937173
1.36275 0.739277 1.14452
0.247261 1.70353 0.913552
1.33436 1.35151 0.953431
2.5867 0.373958 1.22528
2.35309 0.0227854 1.27082
3.00936 -0.563357 1.39044
3.47933 -0.499232 1.41946
3.48572 -0.557255 1.3225
3.27011 -0.522314 1.28811
2.50239 0.707922 1.20249
2.98372 -0.379055 1.72473
2.87555 -0.00110938 1.93474
3.67303 -0.457464 2.02792
2.25437 2.55192 1.19965
2.14023 2.62891 1.20382
3.94794 -0.602827 1.95577
3.5507 -0.534348 2.02417
3.85978 -0.652638 1.9239
2.35213 2.50352 1.39459
3.33232 -0.501761 2.27955
3.87196 -0.43064 2.26846
3.60554 -0.431823 2.40948
2.5581 2.5435 1.83785
2.48483 2.49055 1.82766
4.09293 -1.70817 2.88696
4.26134 -0.409265 2.60203
4.12831 -0.357634 2.78526
-0.042429 0.0176805 -3.0412
1.98488 -0.83659 -1.87959
1.72662 -0.765426 -1.69257
0.810643 0.670236 -1.66598
3.2703 -1.04566 -0.467792
3.44222 -1.0519 -0.396736
2.3919 -0.665227 -0.608976
-0.400183 1.20052 -1.33859
-0.286188 1.30261 -1.29436
1.949 -0.228247 -0.334758
0.971825 0.791136 -0.515969
2.67811 -0.572646 0.0047282
-0.0943053 1.42605 -0.455911
2.22347 0.241646 -0.0154758
3.50515 -0.909799 0.328542
3.03898 -0.579935 0.429572
2.93488 -0.675073 0.284432
2.66331 -0.319636 0.105944
3.14505 -0.637319 0.638183
1.47737 0.440243 0.482891
2.54225 -0.382221 0.709416
3.05516 -0.66291 0.834384
0.351192 1.31791 0.459951
3.24039 -0.629335 0.675565
2.87291 -0.271088 1.16731
2.28724 -0.0891982 1.25679
0.272168 1.74187 0.999894
1.92314 1.06419 1.1098
2.23141 0.0799322 1.2612
2.72482 -0.127752 1.7369
3.79528 -0.586489 1.60335
2.95021 -0.251814 1.68474
2.26244 2.38273 1.31998
2.17662 2.77071 1.0373
2.30854 2.29098 1.25106
2.62895 0.0297616 1.97762
2.75542 -0.0114748 2.29642
3.80634 -0.445644 2.14172
3.6422 -0.403217 2.33723
3.4129 -0.246994 2.33957
3.25981 -0.0426775 2.51529
2.45297 1.19741 2.23619
4.35166 -0.483097 2.55899
4.09397 -0.373208 2.59735
4.23897 -0.383768 2.61351
0.735811 0.527386 -1.69638
0.989633 0.545312 -1.54286
2.30941 -0.778084 -0.937208
-0.287752 1.12757 -1.2722
0.0999644 1.14678 -0.432784
2.57904 -0.406631 0.227954
0.428643 1.1616 0.0306865
3.56424 -0.811956 0.580681
0.565973 1.39294 0.504337
2.88591 -0.479636 0.867549
2.41568 -0.255856 0.931157
0.638363 1.21008 0.725259
1.11893 0.953334 0.954462
2.75911 -0.355969 1.06783
3.45792 -0.672037 1.20675
2.75621 -0.259444 1.52098
1.99212 1.18052 1.46306
2.03343 1.25235 1.37675
1.99527 1.06442 1.46983
2.80036 -0.182949 1.59259
3.00754 -0.254783 1.91553
2.60181 0.0832305 2.23705
3.94529 -0.445752 2.23833
2.38464 2.6801 1.86705
2.35519 2.9934 1.77361
4.29202 -0.458846 2.66945
0.0435405 1.07568 -0.503562
-0.00037367 0.992944 -0.485836
2.85407 -0.598431 0.715402
0.486182 1.40908 0.37315
2.86719 -0.316909 1.14626
1.09086 1.21926 1.00582
0.910819 1.64275 1.23624
2.86409 0.792558 1.37393
1.95938 1.36675 1.47162
2.6745 -0.129322 1.77619
2.96673 -0.0848703 2.33565
3.36152 -0.322783 2.24446
0.72825 0.749635 -1.30289
0.860844 0.633609 -0.58455
1.97994 0.288208 -0.32202
-0.274114 1.2621 -0.413059
3.51917 -0.84602 0.518295
0.443164 1.06238 -0.053839
2.25084 -0.243412 0.328203
0.621839 1.07292 0.107328
2.89419 -0.442449 0.522842
3.31416 -0.55328 1.13247
2.62639 -0.141872 1.27001
2.99844 -0.233293 1.38636
3.12068 -0.439567 1.40751
1.94127 1.43207 1.23823
2.34544 0.932706 1.62964
2.33402 0.978716 1.69508
3.62871 -0.297835 1.89696
3.39377 -0.0891648 2.17238
0.799537 0.679944 -1.48536
0.991613 0.567107 -0.516998
0.905813 0.630701 -0.382903
2.56755 -0.169528 1.17084
2.86292 -0.342213 1.22658
2.13008 1.10296 1.67586
3.53795 -0.325552 2.11644
4.2062 -0.325151 2.57258
1.35941 -0.313487 -2.08108
0.346678 1.30439 0.424603
3.84784 -0.880421 1.05465
4.06714 -0.805362 2.4444
3.93627 -0.236274 2.6278
4.35807 -0.457975 2.51506
3.97152 -0.411642 2.60346
0.446036 0.837124 -2.44082
2.29954 -0.236908 -0.1891
3.69741 -0.80872 1.2478
0.734224 0.854544 0.604975
2.79231 -0.295187 1.48349
-0.0548517 0.00969042 -3.0028
3.07417 -1.50724 -2.18066
3.28354 -1.39345 -1.77279
2.74606 -0.960882 -1.73802
2.78404 -1.20609 -1.74584
0.56413 0.829842 -2.12203
2.82988 -1.06305 -1.78219
2.65747 -0.958652 -1.63535
1.14444 -0.292438 -1.84216
2.80593 -1.04589 -1.4938
2.89024 -1.21709 -1.46308
2.57091 -0.971846 -1.40991
2.20449 -0.709011 -1.4531
1.97306 -0.727813 -1.5284
2.51868 -0.848967 -1.58269
1.75634 -0.586766 -1.14435
-0.346855 1.31837 -1.37488
2.96428 -1.00366 -0.773121
2.43348 -0.654945 -1.00159
1.557 -0.275259 -0.848526
1.98775 -0.522679 -0.790981
3.05053 -0.976148 -0.533257
1.19011 0.23986 -0.395908
2.63185 -0.73794 -0.258092
2.09793 -0.479258 -0.116642
2.46648 -0.318522 -0.0654031
1.29021 0.373981 0.0132675
1.51323 0.37956 0.0254356
3.4562 -0.979784 0.0759366
2.57458 -0.44709 0.0912633
0.510368 1.56307 0.481925
1.25495 0.610869 0.328454
1.43787 0.548173 0.40984
0.36928 1.28283 0.461537
2.94158 -0.632404 0.472452
0.607013 1.21404 0.572354
1.11138 0.842595 0.726138
2.8881 -0.526158 0.742723
3.48996 -0.79561 0.745382
2.80538 -0.472388 0.985546
2.88939 -0.262528 0.793838
1.10774 1.34558 1.10198
3.75383 -0.896137 0.951146
2.20759 1.0645 1.10409
2.80627 -0.245917 1.10755
2.50178 0.396004 1.14786
2.00557 2.81856 1.20059
2.39858 0.0228055 1.44849
2.36482 2.44989 1.31781
2.34501 -0.0399681 1.36476
2.47658 -0.0872911 1.48203
2.35118 2.21086 1.43466
2.16221 1.22338 1.58764
2.57742 0.79558 1.63789
2.51183 0.887379 1.76772
3.98068 -0.627555 1.83794
2.76981 0.0288058 2.28287
3.95024 -0.436504 2.16118
4.08215 -0.310861 2.37587
3.91007 -0.173192 2.67397
-1.08062 0.227905 -3.24291
0.00412241 -0.260822 -2.98059
3.50275 -1.62445 -2.1839
2.96306 -1.27017 -2.06757
1.79658 -0.80735 -2.2751
1.34825 -0.620621 -2.18011
3.25112 -1.40438 -1.69145
3.48966 -1.36872 -1.69551
-0.386991 1.40745 -2.13109
2.77307 -1.0105 -1.52873
-0.42471 1.0841 -1.54362
2.51093 -0.93915 -1.131
0.897077 0.690421 -1.17995
2.64664 -1.03749 -0.965555
2.69267 -0.723525 -0.731234
2.45735 -0.660276 -0.801303
2.87243 -0.865475 -0.473833
-0.124869 1.20061 -0.484388
2.05048 -0.501319 -0.243888
1.69424 -0.173198 -0.221401
2.38511 -0.507401 -0.135723
0.295055 1.1253 0.124015
3.78989 -1.08925 -0.0299124
2.69733 -0.608664 0.0901873
1.2029 0.400689 0.099559
0.400073 1.26148 0.23931
0.566711 1.38889 0.286842
2.63809 -0.603194 0.358149
0.59504 1.42325 0.481956
3.63595 -0.779462 0.468452
0.698577 1.16538 0.639636
2.55724 -0.30851 0.538499
3.29504 -0.698224 0.718598
3.60473 -0.883402 0.625484
1.90272 0.946964 1.05921
2.27686 0.9503 0.995095
2.52582 0.547788 1.09419
2.60877 -0.211706 1.09814
2.51486 -0.213817 1.10926
3.24602 -0.531459 1.16815
2.50591 -0.103004 1.09861
2.3611 0.00812308 1.38039
2.39965 2.56232 1.27011
2.30124 -0.0378697 1.35656
2.57414 -0.044029 1.52387
2.23207 2.80832 1.38428
2.2741 2.40998 1.3666
2.18521 2.86517 1.38174
2.8203 -0.193068 1.76024
2.9669 -0.109388 1.6547
2.60061 0.0705527 1.85573
2.61707 0.00270876 1.6867
3.92134 -0.756021 1.56362
2.04911 1.2807 2.10675
2.3731 2.2992 1.81301
2.68625 0.119124 2.24089
3.75056 -0.59385 1.85649
2.79754 0.0866216 2.12177
4.01832 -0.43521 2.63171
4.21405 -0.459807 2.52489
4.07687 -0.532911 2.79439
1.28122 -0.736529 -2.78782
2.4158 -1.15614 -2.37419
1.95727 -0.927136 -2.34216
1.16649 0.440992 -2.06833
2.93011 -1.29351 -1.733
2.61398 -0.973186 -1.41348
1.03263 0.282506 -1.56081
1.0432 0.270639 -1.54976
1.16729 0.284877 -1.50611
0.916637 0.405134 -1.46857
2.44394 -0.95822 -1.35626
0.849936 0.569755 -1.18893
1.96281 -0.360129 -0.854955
1.82381 -0.298777 -0.554316
2.31059 -0.546054 -0.286111
0.327096 0.914888 -0.118168
2.01518 0.342418 -0.194951
2.47514 -0.686141 -0.0005509
3.4013 -1.00434 0.0476959
2.57367 -0.597212 0.186672
0.35513 1.47947 0.249069
2.2276 0.122622 0.355562
0.624371 1.22991 0.413883
0.565529 1.2097 0.513125
3.01825 -0.462067 0.606219
3.50947 -0.820553 0.715355
3.567 -0.888458 0.790217
2.60427 -0.2525 0.78624
3.64095 -0.796649 0.754194
2.66529 -0.305298 1.14686
2.24359 -0.144781 1.10453
3.35403 -0.628832 1.1651
2.39465 -0.110484 1.30038
3.0215 -0.324135 1.31489
2.56711 0.120192 1.92214
2.70283 -0.0513146 1.95638
2.04584 1.41095 2.01467
2.00125 -1.04678 -2.50791
2.83203 -1.16807 -1.59155
0.935496 0.413024 -1.7849
2.45346 -0.945773 -1.50475
0.706737 0.631096 -1.68033
0.929933 0.360948 -1.62746
2.4166 -1.0192 -1.40475
0.812358 0.494557 -1.67581
0.847312 0.460872 -1.61806
3.04513 -1.1549 -1.13384
0.325285 1.18001 0.0361476
3.53511 -0.880969 0.222018
0.587407 1.1908 0.480032
0.74695 1.248 0.52175
0.542793 1.62596 1.11107
2.18112 0.824519 1.11932
3.92215 -0.224616 2.30063
3.75625 -0.196833 2.37042
3.99687 -0.249577 2.61508
4.24657 -0.465218 2.60646
1.68075 -0.440283 -1.68988
0.839036 0.600271 -1.67962
2.54262 -0.930026 -1.05475
2.72226 -0.994097 -1.15084
2.11875 -0.625546 -0.426295
0.128625 1.12554 -0.532903
0.686041 0.516791 -0.517487
3.01004 -0.754724 -0.239606
2.53098 -0.720571 -0.16331
2.1754 0.180378 -0.0942939
0.323624 1.10689 -0.00290671
2.93593 -0.747086 0.166364
3.23267 -0.891087 -0.0735616
2.29834 -0.269869 0.354118
1.6328 0.495592 0.254513
2.43185 -0.248972 0.654612
1.15987 0.963305 0.991892
3.5239 -0.816528 0.923227
2.00216 0.782137 1.021
2.53274 -0.147143 1.1309
3.0123 -0.478605 0.952929
2.62951 -0.163582 1.15382
2.90317 -0.382043 1.25711
3.10402 -0.544485 1.24732
3.33717 -0.469383 1.21575
3.37857 -0.58319 1.09957
3.31732 -0.426949 1.41897
2.0619 1.45972 1.90611
2.10099 1.55701 2.05389
2.39167 2.00673 1.9375
2.11415 1.63322 2.0637
2.51116 -0.0220646 2.20632
3.90078 -0.449285 2.58705
3.1041 -1.0009 -1.08983
0.723338 0.796097 -0.664273
2.30706 -0.302678 0.322051
0.888361 1.21595 0.661784
1.35868 1.20767 1.07088
2.68744 -0.184345 1.39684
3.02392 -0.329689 1.4245
2.7315 0.0350907 1.86921
