0.109907 2.23378 2.23066
-0.664593 2.48147 1.98965
-1.20499 0.809207 1.4456
-0.596493 0.623707 1.36596
-0.381193 0.554207 1.29641
0.241007 0.374707 1.47432
-1.73849 0.680507 0.74829
-1.82969 0.686907 0.482667
-1.15229 0.806107 0.624027
-1.00369 0.586907 0.675085
2.41201 -1.07679 1.87679
-0.765193 0.390007 0.704562
-0.641093 0.340007 0.724308
-2.57439 0.729507 -0.0028071
-2.44909 0.689407 -0.0021841
1.11611 -0.703793 1.04388
-1.81619 0.735607 -0.109788
-0.138593 0.110807 0.443611
-2.43969 0.722507 -0.609818
1.15181 -0.679793 0.561299
2.25561 -1.04799 0.62416
2.14251 -1.00449 0.581364
-1.33749 0.552807 -0.768088
-1.49569 0.617307 -1.02966
-1.04519 0.476507 -0.891078
-3.62049 0.767407 -1.92753
0.692107 -0.580693 -0.366708
1.63881 -0.874393 -0.0677981
-3.17899 0.625207 -1.89783
0.584807 -0.543793 -0.646098
0.714707 -0.606593 -0.607908
-1.70049 0.839807 -1.60635
0.483607 -0.510093 -0.896758
1.07811 -0.709493 -0.699708
-1.38419 0.741607 -1.61686
-1.03839 0.634607 -1.6033
1.68591 -0.878293 -0.627268
1.57871 -0.859193 -0.929898
2.02291 -0.990593 -1.01479
-0.311893 2.3648 2.02307
-0.447793 2.41104 1.8704
0.387607 1.87483 2.02733
-1.66409 0.978007 1.30523
-0.344793 0.546807 1.30242
-0.178893 0.491307 1.33412
-1.80189 0.681507 0.774437
-2.39749 0.715607 0.553763
2.23831 -1.03529 2.13501
-2.66779 0.757007 0.152669
-1.18499 0.763607 0.534102
-2.47619 0.706707 0.137165
-2.52779 0.719207 0.108144
-1.80389 0.685107 0.247317
-0.273793 0.0228074 0.714783
-0.660793 0.344007 0.498875
0.599607 -0.0546926 0.899992
1.22461 -0.713993 1.13578
-2.45369 0.783207 -0.247968
2.12891 -1.00199 1.32681
1.22111 -0.731293 0.978743
0.387707 -0.181193 0.643905
1.18901 -0.708993 0.907736
-0.266893 0.0470074 0.330439
1.13691 -0.716893 0.834977
1.32941 -0.765393 0.889369
1.49551 -0.842593 0.924904
-3.17549 0.638507 -0.888508
-3.08299 0.609507 -0.876548
-2.51019 0.873507 -0.701858
-3.15999 0.610007 -0.941588
1.35691 -0.781693 0.622216
1.75541 -0.935093 0.557565
1.87591 -0.931793 0.596954
-0.880493 0.445407 -0.437938
2.40831 -1.09409 0.662852
-1.77039 0.876507 -1.13712
-3.71239 0.812507 -1.92916
-3.66209 0.773807 -1.92959
-1.83029 0.898307 -1.21742
-3.41279 0.680607 -1.94679
-3.01469 0.564107 -1.92612
0.440207 -0.493693 -0.623018
1.25661 -0.768593 -0.370838
-2.98339 0.542107 -2.01728
2.20081 -1.04579 -0.0503781
-3.14359 0.594707 -2.13858
0.619407 -0.571293 -0.895808
0.522507 -0.523193 -1.00763
0.558107 -0.551593 -1.46518
-0.713893 0.728107 -1.8574
0.042507 -0.369193 -1.80587
2.05201 -1.00239 -0.994778
0.078007 -0.396793 -1.91893
0.471607 -0.525293 -1.79307
1.28211 -0.767793 -1.52993
1.98941 -0.969993 -1.27052
0.887607 -0.651093 -2.27461
-1.49889 0.919107 1.45262
2.43991 -0.927393 2.67162
-0.765893 0.682607 1.49379
1.36751 -0.770693 2.16326
-0.361993 0.560507 1.45515
1.32951 -0.752993 2.13856
2.52451 -0.963793 2.4611
-1.96529 0.728507 0.778818
-2.39099 0.725507 0.534101
-1.85829 0.738307 0.613132
0.877307 0.175907 1.45898
-1.86229 0.717607 0.442636
1.60691 -0.844793 1.66702
-2.68569 0.768707 0.171782
1.72261 -0.902893 1.60446
-2.42109 0.683507 0.154283
-0.403193 0.0766074 0.831504
-1.32369 0.530607 0.327923
1.96901 -0.959693 1.40441
-1.82349 0.723007 -0.0607381
-0.159093 0.112207 0.420208
0.964707 -0.667093 0.813079
-2.49489 0.837607 -0.531988
-0.040093 -0.0481926 0.137364
-0.653793 0.394707 -0.185978
2.21251 -1.03519 0.698944
-1.92089 0.932107 -1.19364
-1.74819 0.890707 -1.27817
-2.00979 0.868407 -1.42385
-2.01169 0.895507 -1.44657
2.14071 -1.02149 -0.0473921
-3.11609 0.626707 -2.10327
-2.98829 0.573507 -2.07213
-3.06729 0.575007 -2.11396
2.09691 -1.02149 -0.338308
-1.91339 1.09861 -1.84413
-0.769193 0.545007 -1.57337
2.10701 -1.02699 -0.969228
1.00171 -0.671593 -1.50087
1.59531 -0.850693 -1.63252
1.67101 -0.884793 -1.73515
1.73281 -0.905593 -1.72868
1.98431 -0.953793 2.1414
0.252707 0.366207 1.4322
1.95321 -0.982893 1.8432
-2.27949 0.619907 0.281436
-2.61629 0.745907 0.157372
1.82301 -0.918193 1.66692
-0.773193 0.385407 0.576333
-0.874193 0.422107 0.454708
1.78151 -0.881593 1.02125
1.26881 -0.758593 0.801492
0.289907 -0.452393 -1.80396
-1.30529 0.832607 0.588804
0.959807 0.146207 1.33826
-0.290993 0.0222074 -0.0835681
-1.77209 0.880007 -1.20504
0.719707 -0.608793 -0.945498
1.70531 -0.907993 -0.640988
2.26351 -1.04439 1.84903
-1.59919 0.554507 -0.425278
-1.82809 0.850707 -1.06504
1.06581 -0.697393 -0.952178
0.119207 0.382007 1.25656
-1.90019 0.734507 0.683921
2.35021 -1.04999 1.91607
-2.07139 0.763007 -0.188418
-1.41589 0.627107 -1.0891
1.20621 -0.705693 -1.29064
-0.011193 -0.00769263 0.521074
-1.62459 0.621707 0.100816
-0.722793 0.552307 -1.22059
0.508107 -0.528393 -2.26413
-0.997493 0.698307 -2.03172
1.02201 -0.684193 -2.09427
2.36461 -1.09089 -1.94654
-0.670693 0.509907 -1.6114
-0.447493 0.467207 -1.34633
-0.713693 0.589107 -1.23908
-3.46059 0.670607 -1.43384
-3.32349 0.681807 -1.19154
1.36171 -0.789793 -0.395098
-0.189693 -0.000592626 -0.279498
-0.733993 0.415007 -0.0711381
-0.748993 0.390207 -0.0552981
2.26531 -1.05539 -0.0523941
-1.86569 0.733107 -0.0573481
-0.208393 0.00270737 -0.0067661
2.44391 -1.10219 0.0317949
-0.254393 0.0158074 0.138102
-1.20869 0.599207 0.183142
-2.40099 0.686007 0.169161
-0.179993 0.102507 0.507823
1.72491 -0.882393 0.647582
-1.09759 0.682707 0.754596
-1.53259 0.679607 0.790507
0.584707 -0.0458926 0.8782
0.535307 -0.0158926 1.00912
2.12701 -1.00259 1.06153
-0.816293 0.698007 1.4474
-0.357493 0.560207 1.46165
0.251407 0.368107 1.46657
2.01211 -0.973593 1.67233
0.531407 1.59501 1.87772
1.39881 -0.757693 2.27818
1.56201 -0.849293 -1.56756
-0.592993 0.572607 -1.23775
-3.67699 0.679707 -1.59229
-0.730693 0.578307 -1.20766
-1.24759 0.538407 -1.15608
1.60751 -0.852893 -0.946948
0.655107 -0.539893 -0.633658
-2.47989 0.725907 -0.396928
0.021707 -0.0647926 0.162747
-0.738693 0.381307 0.600062
-0.219593 -0.00699263 0.732363
1.87741 -0.933093 0.812505
0.655107 -0.0782926 0.83836
-1.21379 0.821807 1.31915
0.358707 1.93052 1.8701
0.464407 1.70903 1.96594
1.72351 -0.861593 2.29742
0.127507 2.23207 1.99685
-0.526293 2.43373 2.10413
0.166507 2.30976 2.42368
-3.08839 0.566007 -1.961
1.69911 -0.872993 -1.49747
-3.51689 0.726907 -1.42106
-1.43879 0.584407 -0.741478
1.49781 -0.862893 -0.630378
-3.17619 0.633507 -0.640138
-2.40429 0.695307 -0.401488
-2.71539 0.782707 0.147234
-2.48769 0.754607 0.352829
-0.273593 0.0925074 0.482079
-1.71219 0.703407 0.808567
0.746807 -0.104493 0.88024
-2.05439 0.949107 1.227
-0.106193 0.483007 1.50618
1.16611 -0.730693 -1.77987
-0.227793 0.0123074 -0.104458
2.15911 -0.999093 -0.0187571
1.28661 -0.755893 0.576532
-1.03619 0.558407 0.794159
-1.47999 0.705707 0.813651
0.608507 0.0566074 1.10833
0.721307 0.0783074 1.21233
1.91371 -0.922993 2.10824
2.29341 -0.998293 2.18743
2.50071 -0.943093 2.60829
-0.675493 0.494507 -1.09195
-2.11949 0.761507 -0.440308
-0.792393 0.545707 -0.348748
-1.94019 0.777507 0.992321
-2.44299 0.714307 -0.332778
1.80361 -0.923293 0.253295
1.80051 -0.911593 0.29494
-1.11799 0.694107 0.619099
-0.105293 -0.0222926 0.620472
-1.79769 0.965607 -1.31711
0.666707 0.0942074 1.18865
-0.259493 0.526107 1.47353
0.369507 0.336407 1.46914
0.332507 2.13507 1.6993
2.37651 -0.916493 2.60347
-1.57019 0.522807 -0.479768
0.870407 -0.101793 0.0614829
-0.294993 0.545007 1.38624
0.326407 1.90231 1.623
-0.905393 0.595107 -1.61119
1.30131 -0.775593 -1.57303
-2.43449 0.730107 -0.647528
-1.47129 0.572007 -0.162718
-1.82179 0.723507 -0.0703881
-1.21029 0.809907 1.36901
0.572607 -0.0214926 1.02112
2.43321 -0.955093 2.51688
2.83181 -1.06739 2.4239
-0.339593 0.596407 -1.87306
-2.95479 0.559807 -1.58261
-2.45479 0.887307 -0.971978
1.59461 -0.859193 -1.52688
2.41941 -1.13499 -1.59919
1.01101 -0.684593 -0.673258
-0.260193 0.0167074 -0.274048
0.603907 -0.0466926 0.864768
0.402307 1.84542 1.86975
0.501007 1.65178 1.87859
-3.35069 0.706807 -1.9318
1.53911 -0.829493 -1.96724
-0.748693 0.541907 -1.0836
-1.48319 0.579307 -0.895648
1.63521 -0.875193 -0.999418
0.697307 -0.0234926 -0.0830381
-0.397393 0.0506074 0.789557
1.71511 -0.899193 0.526018
0.698407 -0.0861926 0.921687
0.184507 0.365507 1.50031
1.43501 -0.789993 2.29374
2.59781 -1.17909 2.31145
2.45881 -0.945793 2.47093
2.59151 -0.977393 2.46898
-2.94829 0.609607 -1.93256
-2.50429 0.764907 0.36008
-0.182993 0.00130737 0.628907
-0.953093 0.746207 1.54055
2.23971 -1.07169 1.02332
2.40821 -0.925093 2.51174
-0.497893 0.397107 -1.49915
-0.500293 0.167307 -0.470508
-1.04779 0.776007 1.24481
-1.30819 0.488507 0.315997
2.56811 -0.989393 2.46915
2.76031 -1.06339 2.63219
-1.78089 0.876807 -1.22477
-0.251893 0.276807 1.2574
-1.45209 0.778107 -1.29751
-0.373993 0.282907 -1.5253
0.538007 -0.0822926 0.936478
1.90301 -0.930893 2.2015
-2.39739 0.717007 -0.868198
-0.939393 0.445807 -0.740788
-1.47859 0.569907 -0.155268
1.74941 -0.914693 -1.72657
-0.867193 0.415707 0.750571
0.745007 0.0943074 0.0386549
0.788707 0.0718074 0.0563219
-1.64899 0.960107 1.46862
-0.649193 0.580807 -1.2911
-0.710193 0.585607 -1.26597
0.137307 -0.423893 -1.95001
-0.455593 0.396907 -1.30215
-2.58309 0.762407 -0.282818
0.333407 -0.463893 -1.50248
-1.38279 0.555307 -0.334718
0.578107 -0.557793 -1.30895
-1.23249 0.445907 0.306578
-1.50289 0.441907 0.441686
-1.31809 0.727507 0.762665
-0.761593 0.367907 0.903282
2.47821 -1.10809 2.19007
1.02231 -0.705393 -1.00098
-0.563893 0.523807 -1.33202
1.75201 -0.912693 -1.59793
-0.373893 0.0638074 0.217045
-1.25269 0.845107 1.31708
-1.30829 0.517307 0.372425
-2.47109 0.833007 -0.628388
0.536307 -0.0978926 0.942685
-1.04069 0.379007 0.112112
-0.029593 -0.339793 -2.40333
-1.56399 0.639407 -0.657508
-1.00339 0.487107 -0.968998
-1.90059 0.739407 -0.0354421
1.08211 -0.701293 -0.911208
-0.730693 2.50688 2.00018
-0.399293 0.564707 1.46579
-0.139693 0.494007 1.32225
-3.33079 0.673607 -0.923048
-0.642793 0.562207 -1.27351
-1.48279 0.554207 -0.330848
-0.259593 0.0301074 -0.277998
-0.651493 0.343607 0.505484
-0.295093 0.0571074 0.345043
2.48931 -0.947093 2.49457
-2.49829 0.906207 -1.16463
-2.69979 0.773607 0.172301
-1.37049 0.557307 -0.121928
-1.79759 0.693307 0.761375
-0.698093 0.357007 0.0590829
-0.701693 0.362707 0.855693
-3.49979 0.725807 -1.42858
-1.78629 0.998207 1.33237
2.71131 -1.01869 2.46257
-1.16249 0.542807 0.187893
-2.60859 1.00531 -1.1527
-1.49239 0.509307 0.291129
-1.51669 0.501707 0.426684
-1.12929 0.605907 -0.851388
-1.01369 0.483107 -0.967078
-1.98539 0.759707 0.22147
-1.81759 0.704407 0.749931
-1.91369 0.731407 0.890273
-0.613193 0.336507 0.489019
-0.702693 0.353207 0.610778
-0.655393 0.344007 0.702219
1.36041 -0.779393 0.620669
-2.64939 0.766707 -0.232768
-2.43569 0.682207 0.742039
-0.280593 0.0354074 -0.259188
-0.235393 0.0840074 -0.239098
-0.771593 0.378807 0.764936
-0.340893 0.557607 1.48401
-1.24909 0.569707 -0.437098
-1.49939 0.614807 -0.105838
-0.788193 0.387407 0.83895
-1.86229 0.932007 -1.10532
-0.294893 0.0416074 -0.288748
-2.28389 0.822407 -1.15496
-1.52119 0.579007 -0.610978
-1.91509 0.735307 0.367169
-1.91379 0.731007 0.892578
-0.794993 0.392207 0.372185
-0.685893 0.349407 0.509432
-2.52559 1.03351 -1.21529
-2.26869 0.643507 0.0549689
-0.772893 0.373607 0.765125
-1.31359 0.613007 -0.0510191
-1.15559 0.436907 0.178077
-0.616993 0.339807 0.504941
-1.53659 0.629807 -0.0809981
2.71261 -1.06709 2.71242
-1.35189 0.567207 -0.155328
-0.925093 0.425507 -0.595068
2.73051 -1.02039 2.61146
-0.693793 0.349807 0.557482
1.22831 -0.750993 0.25521
-2.27639 0.644007 0.0700369
-1.91749 0.735207 0.759501
-0.772893 0.368307 0.248515
-0.439693 0.0750074 0.0997769
0.804407 -0.627293 -2.35151
1.77761 -0.912393 -1.85842
-3.20949 0.638107 -1.84079
-1.77049 0.917307 -1.30393
-1.79379 0.909307 -1.22538
-1.98489 0.760207 0.763318
-0.379993 0.244107 -1.31259
0.110507 -0.399593 -2.04202
1.72931 -0.899693 0.620984
1.75131 -0.901293 1.45919
-0.795093 0.390707 0.755735
2.50961 -0.959493 2.72825
-2.28009 0.847907 -1.23545
-0.301593 0.0278074 0.298723
-1.67369 0.648307 -0.0123701
-3.24739 0.637807 -1.60638
-0.687993 0.361007 0.695505
0.275807 2.27302 2.55303
0.290807 2.0413 1.90725
0.357707 -0.470593 -1.55211
0.999707 -0.684093 -2.10012
1.23301 -0.753993 0.255532
1.59761 -0.863993 -0.0707681
-3.51729 0.724507 -1.40957
-3.26559 0.636707 -1.56934
-2.50889 0.898607 -0.945688
-0.634493 0.576707 -1.29617
-0.690693 0.350907 0.755321
0.101107 -0.391093 -1.9021
1.07971 -0.695593 1.02341
2.14941 -1.01969 1.32326
-2.44839 0.753907 -0.185148
0.119407 -0.395993 -1.94975
0.489107 0.158707 1.24553
0.991907 -0.675493 -1.40776
1.23371 -0.737793 0.0267749
1.23891 -0.757493 -0.0674981
1.35111 -0.759593 2.17902
1.59921 -0.853993 -1.41204
1.55061 -0.796293 1.18789
1.59551 -0.866193 -0.0916681
1.63561 -0.836593 2.0837
2.21311 -1.05069 -1.79881
1.27251 -0.761693 1.31717
2.21421 -1.05119 -1.89672
-0.608693 0.320807 0.84334
-0.338993 0.0337074 0.341617
0.987107 0.144607 1.38957
1.52141 -0.791793 1.26326
1.59971 -0.856693 -0.165218
1.76171 -0.887393 1.38295
2.15611 -1.01709 1.22331
-0.694093 0.361307 0.861459
-0.391493 0.0566074 0.442196
-0.148893 0.105207 -0.708258
1.10601 -0.711093 0.597838
-0.079593 0.152907 -0.729068
2.50891 -0.954993 2.56241
-2.01559 0.790507 0.760487
-2.37439 0.678507 -0.516178
-1.19059 0.892807 0.758824
-3.23919 0.649707 -1.55013
0.150407 2.22598 2.10232
-1.23909 0.483607 0.0508189
-0.691893 0.355607 0.705444
-0.254793 0.0215074 0.14446
-0.338393 0.264907 -1.25961
0.396907 -0.198393 0.668684
0.141707 -0.406193 -1.99999
0.339407 -0.460093 -1.5228
1.10081 -0.687593 1.15296
1.35271 -0.782993 0.704951
1.57201 -0.815493 1.07243
-0.852593 0.409307 0.758816
-0.872593 0.412807 0.446026
-0.787893 0.388307 0.83701
-0.790593 0.388207 0.56281
-0.427393 0.0714074 0.847934
-0.250993 0.0195074 0.0602709
0.893707 0.190907 2.14776
0.887107 0.196807 2.01771
0.422207 -0.492393 -0.390168
1.30431 -0.756993 2.16516
1.10141 -0.695993 1.01706
0.605607 -0.558693 -1.65634
1.34031 -0.765293 2.17797
1.33131 -0.776093 0.763894
1.35041 -0.779493 0.755543
1.70251 -0.892193 0.780329
-1.92559 0.941407 -1.3352
-0.830393 0.403107 0.575604
-0.691393 0.363207 0.833556
-0.012593 -0.0642926 -0.143828
0.708507 -0.587893 -1.02884
1.81001 -0.892693 1.49927
1.87901 -0.942293 1.73121
1.73621 -0.881793 0.840331
1.57091 -0.859893 -1.42074
2.20601 -1.04219 0.220553
2.18671 -1.05259 -1.85637
-3.26339 0.647307 -1.79874
-1.63269 0.655407 -0.618718
1.21421 -0.758293 0.142348
1.60771 -0.855693 -1.30822
2.13641 -1.02419 -0.0279831
2.18391 -1.03479 0.230234
0.528307 -0.0947926 0.87245
1.93741 -0.975993 -0.991548
1.25901 -0.757393 -0.0332231
-1.33709 0.663107 0.0652459
-1.12479 0.477707 0.0455749
1.93901 -0.956093 -1.14578
-1.14309 0.446507 0.301015
0.370907 -0.0133926 0.0555149
-1.29079 0.652007 0.252532
-2.56519 0.725507 0.161636
-1.97399 0.744607 0.761398
-3.17349 0.624607 -2.02902
-1.90089 0.733907 0.104493
-3.01349 0.558007 -1.97212
-1.52479 0.628607 0.14773
-0.762593 0.379107 0.631638
-0.800193 0.398607 0.509183
-0.691993 0.359107 0.375699
-0.735093 0.378707 0.175137
-1.03199 0.471807 -0.671488
-0.992193 0.456107 -0.597908
-0.443993 0.0671074 0.570189
0.888807 0.188807 2.02971
0.966807 0.173907 1.90017
1.87871 -0.931393 2.14128
1.25211 -0.756593 0.140267
-3.22499 0.636807 -1.53928
-1.94199 0.736607 0.57591
-1.99079 0.758307 0.461503
-1.25819 0.845107 1.27211
-1.73739 0.676807 0.231706
0.323507 2.00752 2.0728
-0.851393 0.408807 0.75818
-0.772593 0.375707 0.904471
-0.823993 0.395407 0.575209
-0.872893 0.412707 0.462693
-0.687893 0.351507 0.754546
-0.698393 0.360407 0.707098
-0.657193 0.346507 0.786391
-0.618493 0.324907 0.718952
-0.871493 0.419707 -0.0444421
-0.428993 0.0718074 0.846715
-0.278593 0.0250074 -0.0092201
0.249507 -0.151093 0.559434
0.388407 -0.187493 0.655138
1.80251 -0.755893 2.44625
0.339407 -0.463993 -1.51717
1.59771 -0.858693 -0.804718
2.24531 -1.05319 -0.968448
2.17821 -1.05459 -1.88452
-3.53859 0.723607 -1.4272
-1.94959 0.746107 0.524799
-0.711293 0.353507 0.753624
-0.791093 0.390507 0.574714
-0.668793 0.348707 0.480693
-0.281393 0.0416074 -0.136048
0.715507 -0.115893 0.777351
0.135207 -0.415293 -2.23155
2.02201 -0.957793 1.98217
1.79721 -0.926693 0.588249
2.20111 -1.05109 0.763979
2.26551 -1.04569 0.84778
1.26541 -0.775393 -2.29305
2.22911 -1.05259 -1.61207
-3.21039 0.627907 -1.80939
-0.750293 0.384507 0.117319
-0.228393 0.00510737 0.0246129
0.012407 -0.0838926 0.207748
-0.289993 0.0736074 0.537991
-0.527493 0.475107 -1.59602
-0.225393 0.00660737 0.76744
-0.277193 0.237607 -1.21272
-1.26289 0.540707 -0.274078
0.374607 -0.00609263 -0.0368021
-1.29139 0.557907 -0.936648
-1.66819 0.961507 1.43984
-2.37059 0.665707 0.851861
-2.53169 0.721707 0.115963
-1.96829 0.753207 0.5355
-1.94439 0.740907 0.550867
-1.34499 0.766707 0.718456
-0.689593 0.359607 0.887894
-0.850993 0.406707 0.535885
-1.77149 0.894007 -1.23749
0.681807 0.100207 0.143365
1.49771 -0.817993 0.849594
0.320407 -0.478193 -0.929908
0.679607 -0.566393 -1.52303
0.569907 -0.554593 -1.77735
-0.630793 2.47288 2.02126
0.102007 2.24041 2.21804
-1.44299 0.901907 1.49001
-1.85259 0.718307 0.926428
-1.88539 0.730107 0.867685
-1.97069 0.747707 0.764239
-1.89139 0.727507 0.746871
-1.85459 0.726307 0.701437
-1.68849 0.649807 0.696177
-1.85939 0.715607 0.394301
-1.81279 0.717307 -0.0570581
-3.12809 0.608707 -1.95801
-0.770093 0.376007 0.90497
-0.711593 0.349707 0.749537
-0.908893 0.423407 0.447298
-0.618493 0.332807 0.750717
-0.852693 0.405407 0.239353
-0.766593 0.382507 0.227646
-0.715493 0.348507 0.226832
-1.21249 0.543707 -1.12209
-0.205293 0.0129074 0.0717099
0.239407 -0.149993 0.544748
-0.666893 0.584107 -1.2579
1.44111 -0.789193 1.72874
1.27961 -0.761093 1.32287
2.06981 -0.972293 1.01853
2.15481 -0.997893 1.00794
1.69951 -0.874293 0.293717
1.13981 -0.725693 -1.78949
2.20471 -1.05069 -1.26679
2.28581 -1.07799 -1.59527
-0.225193 2.34497 2.2156
-0.275393 2.36145 2.05071
0.00830695 2.26877 2.12439
0.101607 2.2432 2.11114
-1.85579 0.709607 0.832556
-1.29489 0.843107 1.26056
-3.53879 0.732507 -1.42178
-1.93199 0.735207 0.321813
-1.79999 0.694107 0.468892
-1.85729 0.717707 0.306655
-0.732593 0.364607 0.92184
-0.772293 0.376307 0.861291
-0.672193 0.363607 0.723913
-0.679593 0.347007 0.47111
-0.736293 0.369007 0.312262
0.657207 0.245207 1.36655
1.35381 -0.756393 1.33103
2.46831 -0.953093 2.64733
1.79931 -0.893993 1.58234
-1.24749 0.834507 1.34262
-1.19319 0.820107 1.3663
-1.44229 0.607007 -0.965168
0.583307 0.243507 1.34552
0.839207 0.186407 1.41276
-0.284393 0.0252074 -0.0821381
-0.010193 -0.0665926 0.190318
1.53281 -0.826293 1.07749
1.78691 -0.914393 0.589306
2.20391 -1.03849 0.146196
-0.038993 0.481107 -1.9493
0.314507 1.99182 2.06318
-0.870493 0.396007 0.456735
-1.22889 0.449907 0.0096289
-0.306593 0.0347074 0.653061
0.228207 -0.0178926 0.0094839
-1.08939 0.631907 -0.822538
-0.239093 2.34911 2.19721
0.137707 2.22837 2.08741
-1.66779 0.963907 1.43931
-1.90439 0.733007 0.753384
-2.53309 0.721007 0.113486
-0.420693 0.571807 1.43896
-1.90609 0.739707 0.225618
-1.73899 0.685807 0.221542
-0.987593 0.560707 0.721935
-0.936593 0.549507 0.721656
0.957907 0.179307 2.1744
0.189107 0.380107 1.43568
-0.660493 0.352707 0.70728
-0.910093 0.425607 0.457421
0.225507 0.380707 1.32655
-0.703493 0.350207 0.48267
-3.14659 0.600707 -1.60629
-0.356893 0.0576074 0.661705
0.823207 0.185807 1.44004
-0.661093 0.358907 0.187302
1.76101 -0.758293 2.40995
-1.64479 0.665107 -0.743918
-3.03399 0.563907 -2.06388
1.82341 -0.883393 1.58193
1.35271 -0.777693 0.728174
1.50041 -0.824793 0.577318
0.219407 -0.429193 -0.941178
2.13381 -1.06319 -0.0061141
2.16921 -1.03569 0.0163089
0.101507 2.23933 1.8847
-1.93279 0.735007 0.85979
-1.96359 0.740007 0.774549
-1.80779 0.688107 0.764616
-1.87489 0.727707 0.62418
-1.97009 0.751907 0.541093
-2.39499 0.670707 0.170777
-1.85939 0.707607 0.43518
-1.96419 0.752807 0.245201
-1.93329 0.731507 0.0786899
-0.814793 0.385507 0.853323
-0.784493 0.390107 0.752462
-0.687893 0.344107 0.756718
-0.749193 0.400407 0.628883
-0.850393 0.404007 0.540844
-0.836093 0.408307 0.50689
-0.847193 0.408307 0.0330979
1.58071 -0.823893 2.20364
-0.802793 0.450907 -0.103688
-0.715593 0.395207 -0.133348
-0.202093 0.0152074 0.309984
0.107807 -0.109593 0.393637
2.25811 -1.04779 2.1993
1.91741 -0.934893 1.88335
1.32971 -0.764493 1.10961
1.16921 -0.727093 -0.0654181
0.980007 -0.694593 -0.346958
1.36671 -0.805693 -0.378128
1.57261 -0.865893 -0.354518
1.59291 -0.850793 -0.359108
1.64181 -0.861293 -0.316608
0.353907 -0.490093 -2.28137
-0.645093 2.47488 2.00893
-0.331793 2.37317 2.00041
-1.92809 0.731107 0.767383
-1.93049 0.731407 0.597151
-0.575893 0.626907 1.36286
-1.93219 0.736207 0.23901
-0.794593 0.398107 0.571487
-0.883493 0.420407 0.448225
-0.813093 0.392007 0.239749
-0.288093 0.0438074 0.712585
-0.811993 0.387107 0.0854439
-0.745393 0.400307 0.126327
-3.11879 0.602207 -1.96552
-0.277393 0.0227074 0.159639
1.81561 -0.889393 2.09643
1.15511 -0.704793 1.10573
-0.451193 0.129207 -0.541498
-1.20749 0.675807 -1.5571
1.00501 -0.658893 0.294594
1.13571 -0.720193 -0.974578
1.56311 -0.867793 -0.944458
1.90541 -0.957793 -1.26113
-0.271193 2.3602 2.04948
-1.37139 0.892807 1.55519
-1.46279 0.902307 1.47936
-1.25259 0.830207 1.33967
-0.952793 0.751707 1.39174
-1.83589 0.713507 0.673063
-0.225093 0.513707 1.48239
1.47601 -0.805693 1.5837
2.07781 -1.01699 -0.0473291
1.98351 -0.982893 -1.04697
-1.15989 0.814907 1.38172
-1.28109 0.573307 -0.362178
-1.48489 0.622907 -1.06636
0.292207 -0.155893 0.455925
-0.178693 0.0230074 0.0334649
-1.27809 0.516207 -0.105198
0.450407 -0.0168926 0.24179
0.749507 -0.0254926 0.18677
-1.14089 0.513507 0.303749
-1.57009 0.608607 0.148672
0.324307 0.0107074 -0.0563081
0.441307 -0.143493 0.465552
-0.239693 2.34786 2.19699
0.084707 2.2415 2.09264
0.138007 2.22722 2.08751
-1.38349 0.765407 0.763813
0.461107 0.310907 1.50612
0.641507 0.240107 1.36994
-0.618593 0.335607 0.746116
-1.08329 0.434207 0.47149
-0.762993 0.377307 0.609452
-2.43619 0.734707 -0.687688
-3.35609 0.688707 -1.16928
-3.51639 0.737707 -1.3891
0.386107 -0.184393 0.642248
-0.126493 0.00410737 0.347293
-1.64229 0.663207 -0.743458
1.44321 -0.803293 0.809847
-1.56499 0.639307 -0.978398
-2.00559 0.964907 -1.33233
1.43431 -0.805693 0.262719
1.25261 -0.738593 -0.205948
0.341507 -0.465993 -1.00699
0.295507 -0.457993 -1.57848
-2.48649 0.816707 0.490293
-0.128693 0.494607 1.54236
-0.520893 0.601107 1.32869
-0.352293 0.554007 1.35568
-1.97099 0.745207 0.245794
1.68611 -0.848593 2.11993
2.32591 -1.06039 2.17604
1.29691 -0.709793 1.61067
-0.732493 0.370007 0.386938
2.43891 -1.09799 1.78302
-3.43349 0.687807 -1.53821
1.26791 -0.770793 1.07071
-3.41499 0.690507 -1.94789
1.35861 -0.789093 0.62304
-1.05639 0.471607 -0.874718
-0.686993 0.558707 -1.2086
0.524207 -0.542393 -0.637478
0.260907 -0.426293 -0.932938
0.514507 -0.527093 -1.48895
0.065707 -0.378293 -1.9162
-0.011593 2.27959 2.10523
-0.728093 0.367107 0.905842
-0.712893 0.374007 0.709638
-1.16139 0.400907 0.439442
-0.770393 0.377407 0.389935
-3.48979 0.718107 -1.53154
1.32541 -0.780493 1.10859
-0.367493 0.0617074 0.125073
-2.53889 0.990107 -1.3628
1.96271 -0.956393 1.0781
-0.083893 -0.0393926 -0.235598
1.46921 -0.816893 0.581392
-1.66689 0.878107 -1.30582
-1.66009 0.895807 -1.3273
0.00540695 0.134907 -0.582618
1.91751 -0.941993 0.236202
0.570607 -0.544193 -0.919328
-0.619093 0.481007 -1.71406
-2.34889 0.672707 0.225939
-1.81069 0.715407 -0.0439721
-1.33539 0.364407 -0.521788
1.70521 -0.898093 0.609502
1.54591 -0.848293 -0.944208
-0.308293 0.539907 1.47231
0.056807 -0.0866926 0.210591
1.80881 -0.926293 -1.20217
-1.89769 0.727407 0.677982
-1.27249 0.543307 -0.821738
-1.01989 0.424307 0.209465
-0.193693 0.408407 -1.93762
-1.30029 0.541507 0.339996
-0.961293 0.489507 -0.654848
-1.12349 0.426307 0.388187
-1.74389 0.420707 -0.270518
0.384707 1.87805 2.25476
-1.21849 0.812607 1.36843
1.67971 -0.858793 1.89504
-1.63499 0.635007 0.777891
-0.959193 0.510507 0.786557
2.01081 -0.963293 1.6248
-2.71979 0.772407 0.182347
-1.21819 0.794907 0.553232
-2.47809 0.710707 0.137015
0.604807 -0.0487926 0.89969
-2.57629 0.730907 -0.0045061
-1.89989 0.756307 -0.0704481
-1.82579 0.728107 -0.0601381
-0.619393 0.337507 0.228284
1.16491 -0.711393 0.562164
-0.143293 -0.0134926 0.150012
-0.064493 -0.0457926 0.148359
-0.705293 0.383207 -0.0577681
-0.831493 0.422207 -0.0947881
0.854007 -0.643593 -0.342168
0.824307 -0.617593 -0.356868
-1.92989 0.975807 -1.29654
0.507607 -0.550293 -0.639358
-3.34249 0.672207 -1.92898
-3.04449 0.582607 -1.95179
-0.00479305 -0.394593 -1.96041
2.09531 -1.00189 -1.26692
1.02471 -0.687493 -2.22286
-0.340993 2.5972 2.62806
-1.50269 0.927107 1.45162
2.21271 -1.00679 2.29312
1.98071 -0.951493 2.14138
0.243507 0.369907 1.45124
-1.96169 0.726707 0.779088
1.81501 -0.932693 1.82746
2.32961 -1.06859 1.85847
-2.40549 0.714607 0.551394
1.93121 -0.931393 1.46033
-1.96969 0.729407 0.247806
1.22651 -0.713193 1.1368
0.083107 -0.0880926 0.521788
1.35871 -0.783593 0.620488
-3.33849 0.670507 -1.19597
1.82061 -0.903693 0.222786
2.10261 -1.00829 0.27402
-3.38409 0.619207 -1.56631
-2.04319 0.948307 -1.34286
-1.80069 0.931207 -1.30403
-1.66149 0.890407 -1.31992
0.210907 -0.429393 -0.944498
0.966907 -0.709993 -0.924198
2.05111 -0.992493 -1.26989
1.62641 -0.871893 -1.66636
1.45551 -0.798793 1.5518
-1.88499 0.717207 0.393606
-2.73259 0.780007 0.133994
-0.764193 0.378307 0.395756
1.29981 -0.725693 0.796187
-0.173393 0.0441074 0.354103
2.17061 -1.01969 0.808995
1.90731 -0.930693 0.542509
2.18461 -1.02419 -0.628308
0.457507 -0.506693 -2.29115
0.295907 0.342607 1.28831
-1.32009 0.796007 0.724119
-2.47519 0.801407 0.409032
-2.47849 0.744007 0.35902
1.71551 -0.897993 1.01538
2.02981 -0.998193 1.03669
-1.92119 0.777607 -0.115228
-1.33389 0.550907 -0.328928
-3.36069 0.663207 -1.53321
2.16321 -1.04399 -0.0070101
-0.883993 0.590707 -0.914618
2.21161 -1.04209 -0.590798
2.18661 -1.03119 -0.632038
0.963307 -0.657793 -1.35087
-2.53829 0.728507 0.581885
-1.87829 0.740407 0.688094
-1.29559 0.592307 -0.347698
-0.698693 0.525207 -1.21086
-1.01069 0.383507 0.514489
1.39941 -0.799793 1.12973
-1.32929 0.549107 0.245416
-1.29659 0.452307 -0.472338
-1.26009 0.627707 -1.09307
-1.13849 0.592407 0.786239
-0.306793 0.572007 1.37048
-1.53979 0.638407 -0.912858
1.55331 -0.798393 2.26729
1.48491 -0.798893 2.26408
0.466307 0.309207 1.53712
-0.187393 0.510307 1.52266
-0.808093 0.696407 1.46183
-0.363493 0.558407 1.46189
0.268007 0.365507 1.45034
-0.587193 0.625807 1.33399
-0.743393 0.380807 0.600101
1.99381 -0.962593 0.642588
-1.22399 0.788407 0.51093
2.58951 -1.13829 0.557145
-2.44609 0.686407 -0.0035941
-1.86919 0.734207 -0.0575481
-1.94399 0.769107 -0.0903381
2.11891 -0.996193 -0.0883281
0.426907 -0.490393 -0.607998
0.637307 -0.500993 -0.627198
-1.36529 0.579007 -0.900488
-3.44499 0.692407 -1.42702
-1.64279 0.874707 -1.22826
1.23351 -0.763293 -1.29258
1.44791 -0.821493 -1.28521
-0.792993 0.622507 -1.28939
-3.50889 0.692907 -1.9249
0.271907 -0.449893 -1.59411
-3.50769 0.724807 -1.92623
0.183107 -0.439893 -1.61445
-3.25599 0.650407 -1.92227
-3.18449 0.625807 -1.92561
-3.41719 0.704607 -1.95748
-3.20339 0.634107 -1.94214
1.25331 -0.757093 -1.56196
1.14531 -0.723193 -1.59492
-2.88299 0.496807 -1.9676
1.66681 -0.882193 -1.55943
1.28451 -0.752693 -1.58888
-0.921393 0.591307 -1.61269
1.67911 -0.879593 -1.59517
1.61941 -0.818493 -1.60998
0.620707 -0.559593 -1.7816
-1.89909 1.08011 -1.8292
-1.53149 0.843807 -2.04026
2.05921 -1.01019 -1.93117
2.04201 -0.993793 -1.94397
-0.999293 0.706907 -2.02851
-0.937293 0.656407 -2.04228
1.02521 -0.688293 -2.22354
1.03051 -0.686393 -2.24652
-0.328793 2.38664 2.09006
-1.42369 0.893807 1.52286
-0.164793 0.503007 1.5363
-1.70199 0.972807 1.50512
-1.21409 0.821307 1.3197
1.86411 -0.963693 1.38576
-0.967693 0.577007 0.761611
1.66861 -0.891393 0.82879
-1.18829 0.789807 0.723499
2.49861 -1.12549 0.544319
0.018207 -0.0630926 0.163907
-0.664093 0.374107 -0.0874881
-2.49759 0.736207 -0.289868
-2.48159 0.721607 -0.397338
-0.228693 0.0223074 -0.288818
-2.52849 0.803007 -0.465678
0.660607 -0.574493 -0.559148
1.47441 -0.820093 -0.659258
-0.303493 0.0674074 -0.854638
-1.29889 0.557607 -0.900558
-1.59709 0.636807 -0.987568
1.65161 -0.846593 -0.926968
-3.63079 0.736207 -1.57084
-3.37679 0.686407 -1.5492
-3.03739 0.585007 -1.55594
-2.06039 0.971107 -1.34407
-0.594793 0.597207 -1.23059
1.58461 -0.851793 -1.53232
-2.94049 0.527307 -1.95278
1.05061 -0.688493 -1.61678
0.758207 -0.576393 -1.72067
1.33161 -0.794593 -1.81204
0.856807 -0.631793 -1.9266
-0.889293 0.770807 -1.83646
1.22451 -0.748593 -2.00325
2.21581 -1.05409 -1.90874
1.06971 -0.703793 -2.2357
2.63381 -1.22199 -2.27262
0.154207 2.2965 2.44624
0.167707 2.31785 2.42147
0.204107 2.25865 2.35534
0.121107 2.23621 2.03047
2.58331 -1.16939 2.30963
-0.931893 0.713007 1.30082
-1.64619 0.934107 1.26895
-2.05399 0.944007 1.22715
-0.348393 0.423207 1.2058
1.63381 -0.850593 1.12033
0.740707 -0.0993926 0.880788
1.53911 -0.827993 0.544928
-2.49049 0.754107 0.353329
-0.177093 0.105707 0.420002
-0.267093 0.0489074 0.337754
0.704807 0.00100737 0.185529
2.20921 -1.04669 0.190374
-2.06669 0.897107 -0.387428
0.916407 -0.631193 -0.914298
-1.30399 0.553507 -0.981018
-3.30199 0.647007 -1.56394
0.995007 -0.672493 -1.3404
0.499307 -0.532093 -1.46091
-0.569493 0.487507 -1.45196
0.396007 -0.490293 -1.95672
0.635107 -0.567793 -2.28255
0.103607 -0.416193 -2.3433
0.246307 0.367407 1.32953
0.477707 0.0642074 1.10444
1.65631 -0.878793 0.315953
1.60111 -0.864393 -0.0165151
-0.225093 0.00180737 -0.137788
-2.12189 0.761407 -0.442688
1.58541 -0.850793 -0.638898
0.990507 -0.730993 -1.27794
2.33431 -1.03829 -1.26381
0.448907 -0.488493 -1.51354
1.69711 -0.871193 -1.49859
0.611307 -0.572093 -1.76382
0.562807 -0.514893 -1.77181
-2.27209 1.00181 -1.89863
1.29811 -0.784893 -1.78812
1.12841 -0.722293 -1.80534
1.75461 -0.918393 -1.78301
-0.536793 0.681107 -1.99952
1.34161 -0.768993 -2.10429
-0.418193 2.40086 2.09479
0.998507 0.131707 2.34512
-2.13059 0.777507 0.990115
-1.94859 0.792207 0.9911
-2.38419 0.700507 -0.509538
-2.01999 0.969207 -1.36165
-0.898793 0.698207 -1.32882
2.22641 -1.04109 -1.30006
0.153607 -0.420593 -1.78856
-0.305193 0.566307 -1.92196
0.146507 2.27412 2.32769
1.66561 -0.709093 2.45086
-1.92809 0.795607 1.03192
2.38951 -1.12359 1.1067
-1.85559 0.747207 0.54825
1.75991 -0.884693 0.631304
2.04141 -1.01469 0.284568
1.80091 -0.922093 0.252361
0.928507 -0.0794926 0.0286029
-1.82269 0.864707 -1.21872
0.248907 -0.460593 -1.92968
0.643007 0.0313074 1.14266
-1.01219 0.461407 -0.435618
1.34351 -0.767193 -1.88697
-0.299193 0.529807 1.38742
-2.24149 0.817507 -1.40015
-0.866793 0.358107 -0.320708
0.305407 1.90789 1.62537
1.46741 -0.819193 -2.07712
-2.68989 0.469907 -1.82778
0.944807 -0.657593 -1.81246
0.416007 -0.499993 -1.79443
-3.04239 0.585707 -1.62148
-3.36779 0.687407 -1.60183
-3.38099 0.691107 -1.5945
-2.90999 0.536007 -1.57381
-0.759293 0.611407 -1.27853
-3.51909 0.723407 -1.31423
1.24341 -0.749593 -1.25567
-3.38209 0.689707 -1.20404
0.355307 -0.464193 -1.1057
1.94951 -0.997593 -0.975748
2.25941 -1.05499 -0.941408
-2.44339 0.745107 -0.672478
-0.249993 0.0616074 -0.668388
-0.265393 0.0580074 -0.668218
-0.263593 0.0565074 -0.636128
-0.264093 0.0568074 -0.596128
-0.265393 0.0542074 -0.459938
-0.210093 0.0475074 -0.453328
-0.190693 0.0419074 -0.451148
-2.50329 0.765307 -0.427928
-2.65409 0.811107 -0.399328
-1.33999 0.580407 -0.332348
0.023307 -0.0294926 -0.349878
1.66771 -0.874893 -0.227928
0.118107 -0.0624926 -0.130588
-1.82089 0.703007 -0.0373261
-1.38039 0.694607 0.0179829
-1.24009 0.482507 0.0272299
0.120107 -0.0667926 0.0364029
0.136107 -0.0658926 0.0526329
0.122507 -0.0681926 0.0721959
0.139607 -0.0682926 0.0876739
-1.18139 0.499007 0.110843
0.128107 -0.0685926 0.110233
0.130807 -0.0713926 0.124867
-1.32759 0.707407 0.171002
-2.37339 0.675207 0.163981
-1.27649 0.672007 0.206861
-1.30239 0.685807 0.219849
0.176807 -0.0863926 0.271452
0.201507 -0.0869926 0.280349
0.229007 -0.0960926 0.324959
0.238707 -0.0979926 0.336275
1.77421 -0.900993 0.334686
-1.33059 0.521507 0.372202
-0.680493 0.348007 0.402168
-2.47319 0.821707 0.454955
-2.44929 0.813707 0.456836
-1.18889 0.778907 0.537847
1.33301 -0.792993 0.636195
1.35081 -0.784093 0.638152
-1.49399 0.725407 0.758064
2.17831 -1.00449 1.09223
0.832007 0.186807 1.36572
0.624507 0.251807 1.46907
2.28051 -1.04509 2.14869
0.801407 -0.627893 -2.44666
2.23141 -1.04999 -2.30367
2.57811 -1.15439 -2.27269
1.00761 -0.685293 -2.23034
0.438807 -0.497993 -2.08973
1.90681 -0.941793 -2.0373
1.19521 -0.740693 -1.98405
0.563607 -0.552093 -1.95695
0.033807 -0.378193 -1.94619
0.791207 -0.625393 -1.95242
0.021007 -0.379193 -1.93685
0.090407 -0.402793 -1.92378
0.415107 -0.498493 -1.92156
1.77941 -0.917793 -1.89405
1.78251 -0.918093 -1.87487
-3.11539 0.603207 -1.80426
0.382207 -0.488093 -1.81789
0.737307 -0.591293 -1.79582
2.00251 -0.973393 -1.65934
-3.23359 0.633107 -1.60222
-3.25549 0.639407 -1.588
-3.23589 0.635207 -1.58387
1.32241 -0.785793 -1.59045
-0.462893 0.514207 -1.33142
-0.817893 0.633107 -1.28541
0.795307 -0.614193 -1.50643
1.61871 -0.850993 -1.48222
-1.74739 0.879407 -1.2413
0.503907 -0.532993 -1.40561
1.10251 -0.723193 -1.28076
-2.24229 0.678507 -1.01852
1.14651 -0.717293 -1.08044
0.463907 -0.504593 -1.02535
-2.40259 0.724107 -0.864748
0.233907 -0.442593 -0.927688
1.59251 -0.852193 -0.924518
0.468007 -0.516393 -0.909958
-0.248393 0.0588074 -0.616118
-2.53749 0.905207 -0.561758
-3.08669 0.609807 -0.645748
-2.56009 0.915907 -0.553298
-0.246993 0.0540074 -0.444198
-0.265393 0.0518074 -0.442908
-0.191593 0.0431074 -0.435378
-0.258493 0.0462074 -0.422138
-1.40829 0.582607 -0.339698
-1.37929 0.583307 -0.335798
1.59481 -0.857093 -0.290648
-1.42209 0.563307 -0.162208
0.130207 -0.0587926 -0.154838
-2.41409 0.687807 -0.0332301
-0.776193 0.390807 0.0825569
-1.49359 0.626507 0.12834
-1.18069 0.519207 0.141009
-0.010293 -0.0541926 0.161736
0.160607 -0.0695926 0.185307
-1.81319 0.704307 0.21417
0.191507 -0.0800926 0.26633
0.218607 -0.0891926 0.309824
1.41261 -0.804693 0.290779
1.76701 -0.911293 0.31394
0.278907 -0.106293 0.386611
-0.604393 0.325107 0.421083
-0.472493 0.0789074 0.412085
-0.134793 0.119207 0.444524
-0.128893 0.103607 0.457178
-0.171393 0.129307 0.474993
-0.138293 0.116607 0.474421
-2.45809 0.815007 0.485724
1.13221 -0.705793 0.484774
-0.154393 0.0693074 0.556506
-2.27399 0.638707 0.559712
1.32691 -0.769293 0.59208
1.71271 -0.895893 0.638185
1.35361 -0.783593 0.685331
-0.947993 0.576707 0.712949
-1.51749 0.726007 0.744128
-1.91289 0.731207 0.742187
-1.41289 0.754707 0.75653
-1.51579 0.723607 0.760976
0.560307 -0.0786926 0.786917
-0.260293 0.0120074 0.879687
-0.996193 0.749307 1.28081
-1.27619 0.835207 1.31217
-0.022493 0.449907 1.32575
-1.23069 0.831607 1.3305
-0.620393 0.635007 1.33709
-0.00709305 0.444207 1.33849
0.837407 0.184907 1.35031
-0.998793 0.759907 1.34395
-1.64209 0.955207 1.46445
-0.032793 0.454007 1.48956
2.11431 -1.00119 1.57319
1.55931 -0.824893 1.60826
2.17811 -1.04669 2.20995
0.096607 2.23743 1.87425
0.116807 2.23187 1.89525
-0.299793 2.36587 1.9249
-0.732993 2.50135 2.01779
2.44991 -0.938593 2.44642
-0.746693 2.50696 2.03132
-0.743593 2.50841 2.04196
0.100007 2.23985 2.09718
0.132407 2.23094 2.10019
0.00790695 2.27662 2.10052
1.68671 -0.889293 -2.48838
1.24501 -0.757093 -2.30857
1.75921 -0.918093 -2.29987
1.73541 -0.915293 -2.19412
1.36761 -0.784193 -2.042
1.07371 -0.700193 -1.9845
1.19301 -0.741593 -1.95665
0.030407 -0.384693 -1.91155
1.75771 -0.918193 -1.89308
0.881107 -0.648893 -1.8492
-1.25349 0.703107 -1.60155
-3.63529 0.751307 -1.60739
0.262407 -0.457693 -1.59416
-3.21749 0.638007 -1.55669
-3.06349 0.594407 -1.51728
0.921507 -0.656493 -1.48653
1.59881 -0.856893 -1.39083
0.911107 -0.652193 -1.31645
0.951307 -0.676993 -1.27013
1.21851 -0.755593 -1.26475
1.18781 -0.739393 -1.23751
1.99191 -0.982793 -1.02909
0.350307 -0.476393 -0.973988
0.289007 -0.472293 -0.932308
0.512107 -0.521293 -0.902078
-1.19649 0.518207 -0.780318
1.60441 -0.861693 -0.864958
0.533107 -0.533093 -0.859288
-2.18559 0.627707 -0.566368
0.434307 -0.496593 -0.602128
-2.44989 0.713507 -0.399268
1.76981 -0.903793 -0.425368
0.667307 -0.564293 -0.342608
1.74461 -0.928993 -0.335738
1.02811 -0.674793 -0.325458
-1.94399 0.766507 -0.0939481
-0.799493 0.419107 -0.0929681
-2.57559 0.732107 -0.0267601
-0.245193 0.0239074 -0.0115861
-1.47709 0.626707 0.0858339
-2.39039 0.673507 0.169653
-1.86659 0.728007 0.198141
-0.746493 0.383407 0.203271
-0.806193 0.398407 0.207976
-1.88909 0.730107 0.209048
1.32821 -0.768393 0.266137
-0.153993 0.00990737 0.327584
-1.32979 0.525707 0.358906
-1.29729 0.510307 0.369871
-2.48729 0.830107 0.495974
-1.31459 0.774107 0.517901
-0.266493 0.0987074 0.503393
1.80871 -0.915893 0.509498
1.80701 -0.919693 0.531754
1.74701 -0.890793 0.672124
-1.47909 0.741607 0.733582
-0.680193 0.345407 0.758723
-1.54769 0.690607 0.777764
1.71711 -0.906993 0.77947
0.568107 -0.0634926 0.803659
2.27631 -1.04519 0.8183
0.094707 -0.0885926 0.835297
-0.425693 0.0591074 0.846514
0.115007 -0.0977926 0.850306
-1.86269 0.714607 0.9042
1.68651 -0.868493 0.976407
2.15161 -1.02399 1.08587
2.16431 -1.01809 1.16492
-1.28269 0.851307 1.24561
-1.26269 0.835307 1.32461
2.19701 -1.01859 1.36854
-1.88409 1.02961 1.32424
0.631007 0.249507 1.35394
-0.861793 0.719307 1.45345
-1.48419 0.916007 1.45517
0.958907 0.144207 1.51909
2.02841 -0.979493 1.64973
1.99731 -0.971493 1.65414
2.31751 -1.06969 1.80278
2.31221 -1.09249 1.82573
2.12391 -1.01099 1.82231
2.42621 -1.09239 1.96983
-0.662293 2.47755 1.99182
0.117707 2.23331 2.00058
0.150107 2.22659 2.03223
-0.532093 2.4402 2.0807
-0.287493 2.36803 2.10348
2.06471 -1.00239 -2.27685
1.06421 -0.707393 -2.2323
1.82611 -0.960193 -1.91338
-1.73979 0.891707 -1.30946
-0.680793 0.586907 -1.26563
1.59001 -0.855193 -1.46206
1.59891 -0.865093 -1.39395
-0.719993 0.570807 -1.14649
-0.741893 0.564407 -1.12445
-0.817593 0.537407 -1.07841
-1.55619 0.626407 -0.890808
0.372907 -0.486093 -0.989538
0.322907 -0.474093 -0.974588
-1.23049 0.537407 -0.782268
2.06761 -0.995693 -0.597358
-1.52739 0.560707 -0.297568
1.76321 -0.905893 -0.107478
-2.56539 0.727407 0.0010169
-2.68719 0.769907 0.134914
-2.69709 0.760207 0.169889
-1.93689 0.728007 0.246197
0.177507 -0.0828926 0.247153
-0.229193 0.0276074 0.316873
-1.81799 0.702207 0.345095
-1.29089 0.515907 0.34444
1.79791 -0.915493 0.345733
-0.865493 0.413507 0.466838
1.11151 -0.705393 0.448316
1.74071 -0.897293 0.637738
-1.73459 0.671807 0.728881
-1.34179 0.731407 0.732146
-1.86309 0.717407 0.754437
-1.59229 0.679707 0.778599
-1.39069 0.728107 0.791083
0.576407 -0.0502926 0.820882
1.14211 -0.727093 0.837054
0.092607 -0.0999926 0.861251
1.49801 -0.819093 0.869644
-0.605393 0.320907 0.927734
-2.10979 0.809707 1.04145
0.927707 0.155107 1.26361
-1.51959 0.926907 1.44088
2.34781 -1.08479 1.62251
2.31331 -1.07139 1.64443
2.31481 -1.07229 1.70504
-0.435793 2.40726 1.87106
2.22821 -1.02449 2.28951
0.955107 -0.664793 -2.09693
1.31751 -0.783293 -1.95083
0.078307 -0.397193 -1.90218
1.21301 -0.733893 -1.77483
-3.08859 0.602107 -1.48265
-0.782793 0.625207 -1.28363
1.55231 -0.853993 -1.4011
-2.53829 1.02131 -1.19984
-2.58909 1.08231 -1.18387
-0.591393 0.514007 -1.12611
-0.769893 0.562707 -1.07807
-2.61939 0.955107 -0.998828
-2.44199 0.774707 -0.904968
0.362907 -0.483193 -0.933118
-1.43649 0.589307 -0.736828
-1.77509 0.699507 -0.0414751
-1.94279 0.746707 -0.0171311
-0.826393 0.403607 -0.0128461
0.692007 0.0875074 0.0534919
0.741707 0.0648074 0.13154
0.014307 -0.0757926 0.221275
-0.262493 0.0481074 0.332738
-2.49049 0.762907 0.349219
-0.741893 0.375807 0.359337
-2.44029 0.722307 0.35575
-2.37529 0.692107 0.38445
-2.02439 0.766307 0.478455
-0.750693 0.358707 0.481853
-0.329693 0.0418074 0.498098
-1.98229 0.752307 0.522646
-0.859993 0.404207 0.530784
-1.94859 0.741607 0.571845
-1.17989 0.828807 0.642058
-0.745293 0.372307 0.636245
2.27091 -1.03749 0.66501
-1.23629 0.719807 0.74534
1.28751 -0.780593 1.07239
1.78381 -0.911593 1.41789
-1.41499 0.896107 1.46672
2.59751 -1.13249 2.16821
2.28691 -1.06609 2.20537
2.17701 -1.00559 2.29811
-0.127193 0.427407 -1.93602
1.80851 -0.920193 -1.93423
-0.669393 0.520807 -1.58222
1.08091 -0.688793 -1.57693
-2.19899 0.825007 -1.33726
-0.689393 0.531407 -1.1245
2.23031 -1.04759 -1.23804
-0.994193 0.466307 -0.972678
-3.03229 0.578107 -0.707358
0.890107 -0.626893 -0.631678
-1.47599 0.564407 -0.308898
-1.39599 0.557307 -0.109808
-0.694193 0.385607 -0.0607281
-0.897193 0.429107 -0.0587981
-2.46869 0.706507 0.14039
-2.42109 0.690807 0.154518
-2.01659 0.765907 0.445003
-0.378893 0.0540074 0.490433
0.704207 -0.127593 0.715463
1.67471 -0.883093 0.798944
-0.820693 0.393707 0.900308
-0.411193 0.410107 1.19076
1.84281 -0.902993 1.46443
0.872507 0.182407 1.46424
1.79261 -0.903693 1.5653
1.85881 -0.909993 1.57776
1.88321 -0.951193 1.6303
1.82641 -0.915593 1.84614
0.314407 -0.471693 -1.927
-1.88309 0.892207 -1.57682
-0.849493 0.653307 -1.34144
-1.77129 0.872507 -1.21867
-0.712593 0.579607 -1.20382
-2.47559 0.888207 -0.965028
-1.04109 0.454607 -0.865998
-3.03279 0.578907 -0.918398
-0.271793 0.0222074 -0.0699081
1.84811 -0.920993 -0.0664381
-1.85399 0.721007 0.439844
-0.660293 0.341907 0.445904
1.81591 -0.910093 0.535387
-1.32249 0.850507 0.674292
-1.74439 0.871807 1.14907
-0.171893 0.517207 1.46795
0.747707 -0.641293 -2.32481
0.129607 -0.0982926 0.724737
0.749507 -0.109493 0.852297
0.605107 -0.0521926 0.919775
-0.220093 0.479807 1.24887
-1.36789 0.563307 -1.09614
-2.49389 0.891407 -1.03836
-1.30199 0.560807 -1.00031
-0.066493 0.136807 -0.597028
0.631507 -0.0737926 0.280866
-1.01949 0.485607 -0.774388
-2.55369 0.892007 -0.622498
-1.52689 0.722607 -0.790208
-1.64109 0.789207 -0.645368
-1.53409 0.514207 0.323927
-1.25349 0.617307 0.823445
0.047607 2.27755 1.94536
-3.27789 0.645507 -1.59645
-2.69619 0.464107 -1.89742
-2.68159 0.468807 -1.88904
-2.69389 0.470807 -1.82804
-3.02309 0.586107 -0.676128
-2.37939 0.722007 -0.895448
-2.45069 0.814507 0.455736
-2.46479 0.818907 0.476449
-0.630993 0.551107 -1.23631
-1.29839 0.583007 -0.346908
-1.53559 0.625507 -0.0481321
-1.20149 0.549307 -0.428678
-1.36609 0.700307 0.0515889
-1.33819 0.700807 0.0718989
-1.35279 0.710907 0.123468
-1.34259 0.710007 0.129556
-1.33549 0.707807 0.13842
-1.34359 0.705907 0.171106
-1.32919 0.706907 0.172093
-1.24109 0.482407 0.0265779
-1.19499 0.486707 0.0740679
-1.21819 0.634307 0.202203
-1.18249 0.516707 0.139272
-1.14499 0.517707 0.152737
-1.28519 0.775307 0.478799
-0.271293 0.0614074 -0.857358
-0.266593 0.0571074 -0.668798
-0.235493 0.0609074 -0.671498
-0.265093 0.0565074 -0.636758
-0.248193 0.0619074 -0.653398
-0.248493 0.0591074 -0.635738
-0.265293 0.0562074 -0.596998
-0.249293 0.0601074 -0.597538
-0.266593 0.0549074 -0.460028
-1.37749 0.875107 1.43787
-0.472793 0.0776074 0.410735
1.76221 -0.917893 -2.51055
-0.289193 0.0215074 0.206158
0.109107 -0.0661926 -0.172608
0.117107 -0.0639926 -0.131088
0.119107 -0.0679926 0.0357849
0.134007 -0.0647926 0.0350139
0.121807 -0.0700926 0.0720869
0.127407 -0.0698926 0.110223
0.177407 -0.0865926 0.271838
2.31771 -1.09099 -2.4987
0.228707 -0.0966926 0.324223
1.81581 -0.918393 0.342255
1.53911 -0.834093 0.859002
2.22651 -1.04839 0.678383
-3.23039 0.636207 -1.87554
-3.42859 0.702807 -1.47397
-3.43899 0.699307 -1.44773
-3.51969 0.723507 -1.31475
-2.71849 0.487607 -1.8004
-2.71989 0.485107 -1.75538
-1.98289 0.963007 -1.27742
-2.37399 0.715907 -0.880158
-2.68669 0.808507 -0.344788
-2.64879 0.805807 -0.387958
-1.90359 0.937607 -1.02904
-1.48089 0.773507 -1.606
-2.60149 0.743307 -0.0416011
-2.46029 0.832907 0.434042
-2.45379 0.818407 0.420838
-2.46279 0.698907 0.749208
-2.42179 0.681907 0.720297
-1.87369 0.730307 0.180681
-0.811693 0.582307 -0.959668
-1.35819 0.582507 -0.334318
-0.505693 0.526607 -1.3107
-1.21629 0.555207 -0.429548
-0.587093 0.508607 -1.14411
-1.72439 0.673307 0.414602
-2.06909 0.856107 1.04363
-1.58989 0.677907 0.752095
-1.88209 1.03351 1.29817
-1.43729 0.770507 0.69658
0.379407 -0.490093 -1.95806
-1.41739 0.751107 0.754212
-1.76779 0.993007 1.30904
-0.248693 0.0625074 -0.838478
0.414707 -0.503793 -1.79867
-1.25779 0.834207 0.719109
-1.29259 0.706107 0.752537
-0.855093 0.406207 0.156902
-0.266593 0.0559074 -0.617618
0.979107 -0.675893 -2.26314
-0.265493 0.0525074 -0.442338
-0.247793 0.0540074 -0.445158
0.982307 -0.682193 -2.08582
1.75621 -0.916493 -2.52667
0.977707 -0.675593 -1.26969
-0.026093 -0.0519926 0.133428
0.160607 -0.0702926 0.18455
2.32291 -1.08199 -2.55844
2.34431 -1.08699 -2.5597
-0.288993 0.0186074 0.908079
-0.260093 0.0125074 0.875793
2.23201 -1.04979 -2.30595
2.46051 -1.10989 -2.45228
0.066607 -0.0947926 0.908234
0.998807 -0.677793 -0.284208
-0.332393 2.37508 1.8875
2.64151 -1.19929 -2.26717
1.59491 -0.854593 -0.923378
1.96441 -0.984093 -0.984748
1.94591 -0.968293 -0.937298
1.97011 -0.979193 -0.959128
0.524707 0.0512074 1.0807
0.100507 2.23997 2.0969
1.35451 -0.781993 0.682703
1.36031 -0.789993 0.772789
1.38001 -0.778093 0.764431
0.959707 0.143507 1.51797
2.22121 -1.04669 0.699755
1.97261 -0.949693 2.11268
-3.50359 0.716507 -1.42204
-3.22279 0.642507 -1.77773
-2.69189 0.470407 -1.9142
-1.94709 0.973407 -1.31959
-1.87259 0.943107 -1.01896
-2.31609 0.667307 -0.410588
-0.850793 0.767107 -1.85928
-2.45329 0.694107 0.152953
-1.62289 0.653907 -0.557128
-0.836393 0.625807 -1.2753
-2.20979 0.618607 0.329506
-1.89389 0.722907 0.122483
-1.99749 0.761607 0.454167
-0.611793 0.526407 -1.21343
-1.47939 0.614907 0.0819869
-0.018893 -0.362993 -1.92496
0.191807 -0.425093 -2.0855
0.483907 -0.522193 -2.23634
-1.31959 0.522407 0.385083
0.564907 -0.535993 -2.23022
0.439807 -0.498593 -1.92856
-1.38439 0.741507 0.76963
0.580807 -0.546693 -1.94796
-0.919893 0.533607 0.682756
0.346007 -0.472293 -0.972028
0.314007 -0.481193 -0.906858
0.694407 -0.579093 -1.07727
1.37381 -0.802993 -1.86212
-0.734393 2.50209 1.91188
1.66801 -0.894493 -1.58315
-0.720293 2.50068 2.07915
-0.425193 2.41581 1.88469
0.076207 -0.0926926 0.840367
-0.211493 0.514907 1.45076
2.21631 -1.04909 -1.7365
-0.127993 0.492907 1.40325
1.51591 -0.833393 -0.691588
1.97471 -0.957893 -1.16734
0.551207 0.0527074 1.0614
-0.00359305 2.27511 2.08355
0.00740695 2.27364 2.09716
0.102207 2.23983 2.0415
1.05211 -0.680493 0.765567
0.150107 2.22692 2.02937
0.132307 2.23025 2.10341
1.20261 -0.739493 0.799121
1.35341 -0.787293 0.660882
1.74111 -0.904193 0.317182
1.39161 -0.788393 0.781093
0.846407 0.176707 1.46577
2.65011 -1.19099 0.792386
2.00761 -0.975493 1.67484
-3.28679 0.647307 -1.66249
-3.49989 0.714107 -1.31986
-2.72739 0.488907 -1.90786
-2.71649 0.473107 -1.62626
-2.59989 0.432307 -1.59209
-1.84219 0.916007 -1.22319
-1.74129 0.890807 -1.30841
-1.91369 0.909407 -1.09096
-1.88949 0.963507 -1.00559
-2.00629 0.947507 -0.371628
-1.54269 0.627107 -0.950118
-2.36719 0.693807 0.414686
-0.932093 0.446807 -1.07921
-0.747293 0.570707 -1.12204
-0.659393 0.578307 -1.22376
-2.29229 0.646607 0.798805
-1.66789 0.656807 0.793829
-0.821193 0.435907 -0.113398
-0.698393 0.363207 0.371885
0.323207 -0.480993 -0.936518
0.352907 -0.477393 -0.942368
0.621907 -0.555993 -0.923718
0.705407 -0.588493 -1.02384
-1.02189 0.756707 1.46697
0.496307 -0.522093 -0.668618
1.77261 -0.923893 -2.27863
-0.244593 0.0233074 0.733411
0.095207 -0.0995926 0.861759
1.10081 -0.716993 0.841077
1.90961 -0.935493 1.19723
1.81391 -0.892493 1.54455
-2.04419 0.926407 -0.374758
-1.01699 0.616007 -1.57865
-1.45099 0.590907 -0.715038
-0.320293 0.489507 -1.87711
-0.778493 0.592707 -1.19242
-0.637293 0.530607 -1.12241
-0.586193 0.504507 -1.13742
-0.921693 0.573607 -0.342698
-1.85809 0.708407 0.913619
-1.50279 0.735507 0.741045
-1.26759 0.781807 0.491284
-0.823093 0.396907 0.655454
1.20721 -0.736393 -1.77285
-0.736093 0.358807 0.907684
-0.268093 0.00540737 0.795508
1.75551 -0.923693 -1.73355
0.726607 0.0827074 0.0842419
1.95791 -0.978293 -1.06709
1.77381 -0.920493 0.580669
2.12191 -1.02789 1.1274
1.93461 -0.924893 1.65947
-2.57349 0.961807 -1.17117
-1.72619 0.857807 -1.14837
-2.22069 0.649507 0.0237579
-1.89189 0.744407 -0.0352761
-2.45529 0.728707 0.595713
-0.130993 0.428707 -1.93225
-2.02009 0.768807 0.448512
-1.62989 0.708807 0.84597
-0.899593 0.428507 -0.0556581
0.424607 -0.504693 -1.95262
-1.68449 0.747207 1.0373
0.00580695 0.219207 -1.13143
-1.26389 0.818507 0.682748
-0.661493 0.360007 -0.0055571
-0.900193 0.423207 0.451062
2.30751 -1.07979 -2.53994
1.24241 -0.781993 -0.376728
1.53201 -0.819593 1.01503
2.10051 -0.990593 1.07485
1.74741 -0.914893 1.58552
1.87981 -0.932193 1.72462
2.00311 -0.959093 1.62423
2.77031 -1.03099 2.66009
