-3.55 14.22 -1.675 0 0 0
-3.626 14.332 -1.691 0 0 0
-3.659 14.274 -1.685 0 0 0
-3.701 14.251 -1.684 0 0 0
-3.759 14.289 -1.69 0 0 0
-3.797 14.252 -1.687 0 0 0
-3.904 14.472 -1.718 0 0 0
-3.878 14.286 -1.694 0 0 0
-3.942 14.343 -1.703 0 0 0
-3.995 14.359 -1.707 0 0 0
-4.013 14.251 -1.694 0 0 0
-4.047 14.198 -1.689 0 0 0
-4.105 14.235 -1.696 0 0 0
-4.175 14.308 -1.707 0 0 0
-4.188 14.269 -1.703 0 0 0
-4.228 14.24 -1.701 0 0 0
-4.269 14.213 -1.699 0 0 0
-4.339 14.285 -1.71 0 0 0
-4.428 14.416 -1.73 0 0 0
-4.452 14.332 -1.72 0 0 0
-4.488 14.289 -1.716 0 0 0
-4.503 14.26 -1.713 0 0 0
-4.552 14.259 -1.715 0 0 0
-4.594 14.235 -1.714 0 0 0
-4.669 14.315 -1.726 0 0 0
-4.718 14.311 -1.728 0 0 0
-4.797 14.398 -1.742 0 0 0
-4.83 14.349 -1.737 0 0 0
-4.862 14.294 -1.732 0 0 0
-4.887 14.292 -1.733 0 0 0
-4.949 14.328 -1.739 0 0 0
-4.966 14.231 -1.728 0 0 0
-5.026 14.261 -1.735 0 0 0
-5.077 14.262 -1.737 0 0 0
-5.138 14.292 -1.743 0 0 0
-5.239 14.431 -1.764 0 0 0
-5.208 14.275 -1.744 0 0 0
-5.253 14.257 -1.744 0 0 0
-5.302 14.253 -1.746 0 0 0
-5.393 14.359 -1.762 0 0 0
-5.455 14.387 -1.769 0 0 0
-5.482 14.323 -1.762 0 0 0
-5.517 14.28 -1.759 0 0 0
-5.556 14.248 -1.757 0 0 0
-5.581 14.245 -1.757 0 0 0
-4.005 10.109 -1.191 0 0 0
-3.915 9.788 -1.149 0 0 0
-3.896 9.652 -1.132 0 0 0
-3.884 9.451 -1.108 0 0 0
-3.888 9.375 -1.099 0 0 0
-3.927 8.907 -1.046 0 0 0
-3.937 8.855 -1.04 0 0 0
-3.953 8.815 -1.036 0 0 0
-3.998 8.769 -1.033 0 0 0
-4.045 8.797 -1.039 0 0 0
-4.054 8.745 -1.034 0 0 0
-4.089 8.748 -1.036 0 0 0
-4.104 8.746 -1.036 0 0 0
-4.135 8.74 -1.037 0 0 0
-4.167 8.736 -1.039 0 0 0
-4.194 8.723 -1.039 0 0 0
-4.226 8.718 -1.04 0 0 0
-4.254 8.707 -1.04 0 0 0
-4.297 8.726 -1.045 0 0 0
-4.318 8.698 -1.043 0 0 0
-4.33 8.687 -1.042 0 0 0
-4.356 8.672 -1.042 0 0 0
-4.401 8.694 -1.047 0 0 0
-4.438 8.699 -1.05 0 0 0
-4.459 8.673 -1.048 0 0 0
-4.487 8.661 -1.048 0 0 0
-4.525 8.668 -1.051 0 0 0
-4.551 8.683 -1.055 0 0 0
-4.576 8.666 -1.054 0 0 0
-4.615 8.672 -1.057 0 0 0
-4.647 8.666 -1.059 0 0 0
-4.673 8.65 -1.058 0 0 0
-4.71 8.654 -1.061 0 0 0
-4.743 8.65 -1.063 0 0 0
-4.773 8.672 -1.067 0 0 0
-4.806 8.668 -1.068 0 0 0
-4.838 8.661 -1.07 0 0 0
-4.868 8.651 -1.07 0 0 0
-4.892 8.631 -1.07 0 0 0
-4.937 8.646 -1.074 0 0 0
-4.977 8.653 -1.078 0 0 0
-5.001 8.632 -1.077 0 0 0
-5.016 8.626 -1.077 0 0 0
-5.056 8.633 -1.08 0 0 0
-5.094 8.635 -1.083 0 0 0
-5.123 8.623 -1.084 0 0 0
-5.166 8.634 -1.088 0 0 0
-5.189 8.611 -1.087 0 0 0
-5.225 8.608 -1.089 0 0 0
-5.262 8.639 -1.095 0 0 0
-5.281 8.609 -1.092 0 0 0
-5.317 8.607 -1.095 0 0 0
-5.355 8.609 -1.098 0 0 0
-5.387 8.599 -1.099 0 0 0
-5.425 8.601 -1.101 0 0 0
-5.461 8.597 -1.103 0 0 0
-5.49 8.614 -1.107 0 0 0
-5.529 8.615 -1.11 0 0 0
-5.556 8.597 -1.11 0 0 0
-5.589 8.59 -1.112 0 0 0
-5.622 8.58 -1.113 0 0 0
-5.666 8.589 -1.117 0 0 0
-5.709 8.596 -1.121 0 0 0
-5.739 8.612 -1.124 0 0 0
-5.765 8.592 -1.124 0 0 0
-5.793 8.576 -1.124 0 0 0
-5.828 8.569 -1.126 0 0 0
-5.877 8.584 -1.131 0 0 0
-5.904 8.565 -1.131 0 0 0
-5.946 8.568 -1.135 0 0 0
-5.987 8.57 -1.138 0 0 0
-6.005 8.567 -1.139 0 0 0
-6.044 8.565 -1.141 0 0 0
-6.076 8.554 -1.143 0 0 0
-6.112 8.547 -1.145 0 0 0
-6.175 8.578 -1.153 0 0 0
-6.198 8.554 -1.152 0 0 0
-6.296 8.547 -1.158 0 0 0
-6.361 8.523 -1.161 0 0 0
-6.454 8.535 -1.169 0 0 0
-6.539 8.535 -1.176 0 0 0
-10.228 9.49 -1.585 0 0 0
-10.222 9.425 -1.579 0 0 0
-10.192 9.367 -1.571 0 0 0
-10.185 9.302 -1.565 0 0 0
-10.189 9.247 -1.561 0 0 0
-10.187 9.187 -1.555 0 0 0
-10.185 9.127 -1.55 0 0 0
-10.183 9.067 -1.545 0 0 0
-10.319 9.131 -1.563 0 0 0
-10.097 8.877 -1.52 0 0 0
-10.213 8.952 -1.538 0 0 0
-10.233 8.688 -1.518 0 0 0
-10.236 8.636 -1.514 0 0 0
-10.245 8.616 -1.513 0 0 0
-10.251 8.566 -1.509 0 0 0
-10.28 8.535 -1.51 0 0 0
-10.317 8.511 -1.511 0 0 0
-10.348 8.483 -1.512 0 0 0
-10.58 8.48 -1.535 0 0 0
-10.621 8.458 -1.537 0 0 0
-10.658 8.433 -1.539 0 0 0
-10.722 8.429 -1.545 0 0 0
-10.79 8.429 -1.552 0 0 0
-10.85 8.42 -1.557 0 0 0
-10.915 8.416 -1.564 0 0 0
-11.035 8.482 -1.581 0 0 0
-11.126 8.497 -1.591 0 0 0
-11.112 8.43 -1.585 0 0 0
-12.984 8.363 -1.776 0 0 0
-13.09 8.403 -1.79 0 0 0
-13.143 8.379 -1.794 0 0 0
-13.168 8.336 -1.794 0 0 0
-13.229 8.317 -1.799 0 0 0
-13.385 8.299 -1.815 0 0 0
-13.558 8.347 -1.837 0 0 0
-13.463 8.26 -1.821 0 0 0
-16.187 -3.528 -1.92 0 0 0
-16.164 -3.577 -1.918 0 0 0
-16.102 -3.616 -1.911 0 0 0
-16.056 -3.659 -1.907 0 0 0
-16.033 -3.707 -1.905 0 0 0
-15.978 -3.747 -1.9 0 0 0
-15.959 -3.795 -1.899 0 0 0
-16.04 -3.841 -1.91 0 0 0
-15.949 -3.872 -1.9 0 0 0
-16.008 -3.94 -1.909 0 0 0
-15.97 -3.984 -1.906 0 0 0
-15.938 -4.029 -1.903 0 0 0
-15.902 -4.074 -1.9 0 0 0
-15.87 -4.118 -1.898 0 0 0
-15.892 -4.177 -1.902 0 0 0
-15.832 -4.188 -1.895 0 0 0
-15.891 -4.257 -1.905 0 0 0
-15.868 -4.305 -1.904 0 0 0
-15.734 -4.322 -1.888 0 0 0
-13.73 -7.428 -1.797 0 0 0
-10.605 -8.547 -1.543 0 0 0
-10.53 -8.542 -1.535 0 0 0
-10.496 -8.568 -1.534 0 0 0
-10.43 -8.542 -1.525 0 0 0
-10.354 -8.535 -1.517 0 0 0
-10.39 -8.619 -1.527 0 0 0
-10.366 -8.654 -1.528 0 0 0
-10.257 -8.618 -1.514 0 0 0
-10.287 -8.699 -1.524 0 0 0
-10.276 -8.745 -1.527 0 0 0
-10.247 -8.748 -1.524 0 0 0
-10.211 -8.773 -1.522 0 0 0
-10.149 -8.775 -1.517 0 0 0
-10.082 -8.773 -1.51 0 0 0
-9.962 -8.724 -1.494 0 0 0
-9.925 -8.747 -1.493 0 0 0
-9.85 -8.736 -1.485 0 0 0
-9.882 -8.82 -1.495 0 0 0
-9.858 -8.826 -1.493 0 0 0
-9.776 -8.808 -1.484 0 0 0
-9.686 -8.783 -1.473 0 0 0
-9.692 -8.844 -1.479 0 0 0
-9.528 -8.75 -1.455 0 0 0
-9.582 -8.855 -1.469 0 0 0
-9.554 -8.885 -1.469 0 0 0
-9.507 -8.869 -1.464 0 0 0
-9.494 -8.912 -1.466 0 0 0
-9.434 -8.912 -1.461 0 0 0
-9.36 -8.898 -1.452 0 0 0
-9.284 -8.882 -1.444 0 0 0
-9.262 -8.917 -1.445 0 0 0
-9.231 -8.943 -1.445 0 0 0
-9.231 -8.972 -1.447 0 0 0
-9.149 -8.948 -1.438 0 0 0
-9.118 -8.974 -1.437 0 0 0
-9.002 -8.916 -1.421 0 0 0
-8.855 -8.826 -1.4 0 0 0
-8.962 -8.988 -1.424 0 0 0
-8.813 -8.895 -1.402 0 0 0
-8.881 -9.02 -1.42 0 0 0
-8.875 -9.043 -1.421 0 0 0
-8.705 -8.926 -1.395 0 0 0
-8.677 -8.953 -1.395 0 0 0
-8.645 -8.976 -1.395 0 0 0
-8.621 -9.007 -1.395 0 0 0
-8.561 -9.001 -1.39 0 0 0
-8.579 -9.077 -1.398 0 0 0
-8.58 -9.107 -1.401 0 0 0
-8.374 -8.946 -1.368 0 0 0
-8.433 -9.065 -1.384 0 0 0
-8.441 -9.13 -1.391 0 0 0
-8.408 -9.152 -1.39 0 0 0
-8.359 -9.157 -1.387 0 0 0
-8.337 -9.19 -1.388 0 0 0
-8.312 -9.192 -1.386 0 0 0
-8.311 -9.249 -1.391 0 0 0
-8.245 -9.233 -1.384 0 0 0
-8.258 -9.307 -1.392 0 0 0
-8.213 -9.315 -1.389 0 0 0
-8.116 -9.263 -1.376 0 0 0
-8.08 -9.281 -1.375 0 0 0
-8.082 -9.313 -1.378 0 0 0
-7.944 -9.213 -1.357 0 0 0
-7.982 -9.316 -1.37 0 0 0
-7.946 -9.333 -1.369 0 0 0
-7.709 -9.113 -1.327 0 0 0
-7.865 -9.356 -1.364 0 0 0
-7.849 -9.397 -1.367 0 0 0
-7.781 -9.345 -1.356 0 0 0
-7.811 -9.442 -1.368 0 0 0
-7.759 -9.438 -1.363 0 0 0
-7.691 -9.417 -1.356 0 0 0
-7.63 -9.402 -1.349 0 0 0
-7.512 -9.317 -1.331 0 0 0
-7.518 -9.384 -1.339 0 0 0
-7.468 -9.383 -1.335 0 0 0
-7.478 -9.425 -1.34 0 0 0
-7.421 -9.414 -1.334 0 0 0
-7.398 -9.446 -1.335 0 0 0
-7.368 -9.469 -1.335 0 0 0
-7.414 -9.589 -1.351 0 0 0
-7.368 -9.592 -1.348 0 0 0
-7.312 -9.582 -1.342 0 0 0
-7.356 -9.671 -1.355 0 0 0
-7.235 -9.574 -1.336 0 0 0
-7.26 -9.669 -1.347 0 0 0
-7.206 -9.66 -1.342 0 0 0
-7.208 -9.727 -1.349 0 0 0
-7.162 -9.729 -1.346 0 0 0
-7.065 -9.66 -1.331 0 0 0
-7.077 -9.708 -1.337 0 0 0
-7.249 -10.01 -1.381 0 0 0
-7.036 -9.782 -1.342 0 0 0
-6.851 -9.588 -1.308 0 0 0
-6.854 -9.656 -1.315 0 0 0
-6.856 -9.723 -1.322 0 0 0
-6.865 -9.801 -1.331 0 0 0
-6.81 -9.788 -1.326 0 0 0
-6.702 -9.666 -1.305 0 0 0
-6.62 -9.612 -1.293 0 0 0
-6.625 -9.685 -1.302 0 0 0
-6.65 -9.786 -1.314 0 0 0
-6.708 -9.938 -1.334 0 0 0
-6.63 -9.89 -1.324 0 0 0
-6.562 -9.855 -1.315 0 0 0
-6.475 -9.758 -1.298 0 0 0
-6.381 -9.684 -1.284 0 0 0
-6.601 -10.083 -1.342 0 0 0
-6.961 -10.703 -1.434 0 0 0
-6.843 -10.595 -1.414 0 0 0
-6.886 -10.735 -1.432 0 0 0
-6.854 -10.76 -1.432 0 0 0
-6.814 -10.772 -1.431 0 0 0
-6.696 -10.623 -1.407 0 0 0
-6.743 -10.772 -1.426 0 0 0
-6.1 -9.817 -1.279 0 0 0
-6.648 -10.77 -1.42 0 0 0
-5.971 -9.747 -1.263 0 0 0
-6.035 -9.92 -1.286 0 0 0
-6.04 -9.998 -1.295 0 0 0
-6.527 -10.839 -1.419 0 0 0
-6.478 -10.834 -1.415 0 0 0
-5.934 -10.001 -1.288 0 0 0
-6.337 -10.752 -1.397 0 0 0
-6.394 -10.927 -1.42 0 0 0
-6.346 -10.923 -1.416 0 0 0
-5.798 -10.057 -1.286 0 0 0
-5.782 -10.065 -1.285 0 0 0
-6.241 -10.94 -1.412 0 0 0
-6.207 -10.959 -1.412 0 0 0
-6.162 -10.96 -1.409 0 0 0
-6.141 -11.003 -1.412 0 0 0
-6.099 -11.011 -1.411 0 0 0
-5.547 -10.092 -1.274 0 0 0
-6.02 -10.989 -1.403 0 0 0
-6.002 -11.039 -1.408 0 0 0
-5.928 -10.985 -1.397 0 0 0
-5.929 -11.069 -1.407 0 0 0
-5.891 -11.083 -1.406 0 0 0
-5.856 -11.099 -1.406 0 0 0
-5.82 -11.116 -1.406 0 0 0
-5.794 -11.109 -1.403 0 0 0
-5.743 -11.096 -1.399 0 0 0
-5.721 -11.14 -1.403 0 0 0
-4.956 -9.732 -1.198 0 0 0
-5.647 -11.167 -1.401 0 0 0
-5.61 -11.181 -1.401 0 0 0
-5.565 -11.179 -1.398 0 0 0
-5.549 -11.192 -1.398 0 0 0
-5.507 -11.195 -1.396 0 0 0
-5.472 -11.212 -1.396 0 0 0
-5.443 -11.242 -1.398 0 0 0
-5.402 -11.248 -1.397 0 0 0
-5.361 -11.252 -1.395 0 0 0
-5.33 -11.278 -1.396 0 0 0
-5.29 -11.286 -1.395 0 0 0
-5.27 -11.289 -1.394 0 0 0
-5.232 -11.3 -1.393 0 0 0
-5.189 -11.302 -1.391 0 0 0
-5.152 -11.314 -1.391 0 0 0
-5.111 -11.318 -1.389 0 0 0
-5.072 -11.327 -1.388 0 0 0
-5.041 -11.352 -1.389 0 0 0
-5.012 -11.336 -1.386 0 0 0
-4.973 -11.344 -1.385 0 0 0
-4.931 -11.344 -1.383 0 0 0
-4.893 -11.355 -1.382 0 0 0
-4.858 -11.373 -1.382 0 0 0
-4.816 -11.373 -1.38 0 0 0
-4.781 -11.39 -1.381 0 0 0
-4.765 -11.401 -1.381 0 0 0
-4.728 -11.412 -1.381 0 0 0
-4.69 -11.422 -1.38 0 0 0
-4.644 -11.413 -1.377 0 0 0
-4.607 -11.423 -1.376 0 0 0
-4.57 -11.436 -1.376 0 0 0
-4.527 -11.432 -1.373 0 0 0
-4.506 -11.432 -1.372 0 0 0
-4.468 -11.44 -1.372 0 0 0
-4.429 -11.447 -1.371 0 0 0
-4.391 -11.457 -1.37 0 0 0
-4.354 -11.467 -1.37 0 0 0
-4.315 -11.473 -1.369 0 0 0
-4.283 -11.498 -1.37 0 0 0
-4.244 -11.504 -1.369 0 0 0
-4.223 -11.503 -1.368 0 0 0
-4.189 -11.52 -1.369 0 0 0
-4.154 -11.539 -1.369 0 0 0
-4.11 -11.529 -1.366 0 0 0
-4.07 -11.531 -1.365 0 0 0
-4.026 -11.521 -1.362 0 0 0
-3.996 -11.552 -1.364 0 0 0
-3.975 -11.551 -1.363 0 0 0
-3.937 -11.558 -1.362 0 0 0
-3.896 -11.557 -1.361 0 0 0
-3.859 -11.567 -1.36 0 0 0
-3.822 -11.576 -1.36 0 0 0
-3.783 -11.58 -1.359 0 0 0
-3.745 -11.588 -1.358 0 0 0
-3.717 -11.564 -1.354 0 0 0
-3.684 -11.585 -1.356 0 0 0
-3.636 -11.561 -1.351 0 0 0
-3.602 -11.578 -1.352 0 0 0
-3.561 -11.576 -1.35 0 0 0
-3.522 -11.577 -1.348 0 0 0
-3.479 -11.565 -1.345 0 0 0
-3.444 -11.582 -1.346 0 0 0
-3.427 -11.593 -1.347 0 0 0
-3.388 -11.592 -1.345 0 0 0
-3.353 -11.609 -1.346 0 0 0
-3.319 -11.629 -1.347 0 0 0
-3.285 -11.647 -1.348 0 0 0
-3.24 -11.626 -1.344 0 0 0
-3.206 -11.646 -1.346 0 0 0
-3.178 -11.617 -1.341 0 0 0
-3.151 -11.663 -1.346 0 0 0
-3.106 -11.642 -1.342 0 0 0
-3.071 -11.656 -1.342 0 0 0
-3.031 -11.652 -1.341 0 0 0
-3.001 -11.688 -1.344 0 0 0
-2.959 -11.678 -1.342 0 0 0
-2.935 -11.658 -1.338 0 0 0
-2.902 -11.683 -1.34 0 0 0
-2.865 -11.69 -1.34 0 0 0
-2.829 -11.702 -1.341 0 0 0
-2.796 -11.727 -1.343 0 0 0
-2.757 -11.728 -1.342 0 0 0
-2.718 -11.729 -1.341 0 0 0
-2.69 -11.69 -1.335 0 0 0
-2.66 -11.728 -1.339 0 0 0
-2.62 -11.721 -1.337 0 0 0
-2.588 -11.752 -1.34 0 0 0
-2.543 -11.723 -1.335 0 0 0
-2.505 -11.725 -1.334 0 0 0
-2.469 -11.739 -1.335 0 0 0
-2.444 -11.71 -1.331 0 0 0
-2.407 -11.719 -1.331 0 0 0
-2.367 -11.709 -1.329 0 0 0
-2.337 -11.748 -1.333 0 0 0
-2.299 -11.753 -1.332 0 0 0
-2.259 -11.743 -1.33 0 0 0
-2.226 -11.769 -1.333 0 0 0
-2.205 -11.759 -1.331 0 0 0
-2.164 -11.745 -1.328 0 0 0
-2.135 -11.796 -1.334 0 0 0
-2.093 -11.778 -1.331 0 0 0
-2.059 -11.798 -1.332 0 0 0
-2.029 -11.845 -1.338 0 0 0
-1.99 -11.84 -1.336 0 0 0
-1.954 -11.858 -1.338 0 0 0
-1.931 -11.831 -1.334 0 0 0
-1.894 -11.837 -1.334 0 0 0
-1.849 -11.798 -1.328 0 0 0
-1.815 -11.824 -1.331 0 0 0
-1.782 -11.857 -1.334 0 0 0
-1.748 -11.882 -1.337 0 0 0
-1.707 -11.862 -1.334 0 0 0
-1.689 -11.87 -1.334 0 0 0
-1.649 -11.858 -1.332 0 0 0
-1.611 -11.853 -1.331 0 0 0
-1.572 -11.85 -1.33 0 0 0
-1.54 -11.889 -1.334 0 0 0
-1.5 -11.876 -1.332 0 0 0
-1.461 -11.867 -1.33 0 0 0
-1.445 -11.893 -1.333 0 0 0
-1.408 -11.897 -1.333 0 0 0
-1.371 -11.909 -1.334 0 0 0
-1.329 -11.866 -1.328 0 0 0
-1.294 -11.898 -1.331 0 0 0
-1.254 -11.878 -1.328 0 0 0
-1.217 -11.88 -1.328 0 0 0
-1.202 -11.92 -1.333 0 0 0
-1.16 -11.878 -1.327 0 0 0
-1.127 -11.925 -1.333 0 0 0
-1.088 -11.917 -1.331 0 0 0
-1.051 -11.922 -1.331 0 0 0
-1.012 -11.907 -1.329 0 0 0
-0.976 -11.926 -1.331 0 0 0
-0.934 -11.878 -1.325 0 0 0
-0.918 -11.907 -1.328 0 0 0
-0.88 -11.908 -1.328 0 0 0
-0.844 -11.918 -1.329 0 0 0
-0.805 -11.911 -1.328 0 0 0
-0.769 -11.933 -1.33 0 0 0
-0.731 -11.922 -1.328 0 0 0
-0.695 -11.942 -1.331 0 0 0
-0.675 -11.929 -1.329 0 0 0
-0.637 -11.921 -1.328 0 0 0
-0.6 -11.941 -1.33 0 0 0
-0.563 -11.939 -1.329 0 0 0
-0.527 -11.97 -1.333 0 0 0
-0.488 -11.946 -1.33 0 0 0
-0.451 -11.956 -1.331 0 0 0
-0.432 -11.956 -1.331 0 0 0
-0.395 -11.968 -1.332 0 0 0
-0.357 -11.969 -1.332 0 0 0
-0.32 -11.986 -1.334 0 0 0
-0.282 -11.969 -1.332 0 0 0
-0.244 -11.978 -1.333 0 0 0
-0.206 -11.966 -1.331 0 0 0
-0.188 -11.977 -1.333 0 0 0
-0.15 -11.973 -1.332 0 0 0
-0.113 -11.991 -1.335 0 0 0
-0.075 -11.968 -1.331 0 0 0
-0.037 -11.97 -1.332 0 0 0
0 -11.97 -1.332 0 0 0
0.038 -11.988 -1.334 0 0 0
0.076 -12.002 -1.336 0 0 0
0.094 -11.997 -1.335 0 0 0
0.132 -11.983 -1.334 0 0 0
0.17 -12.005 -1.336 0 0 0
0.208 -12.008 -1.337 0 0 0
0.246 -12.015 -1.338 0 0 0
0.283 -12.018 -1.338 0 0 0
0.321 -11.994 -1.335 0 0 0
0.339 -11.995 -1.336 0 0 0
0.377 -11.988 -1.335 0 0 0
0.415 -12.013 -1.338 0 0 0
0.453 -11.993 -1.336 0 0 0
0.491 -12.012 -1.338 0 0 0
0.527 -11.968 -1.333 0 0 0
0.565 -11.973 -1.334 0 0 0
0.585 -11.99 -1.336 0 0 0
0.622 -11.984 -1.336 0 0 0
0.66 -11.982 -1.336 0 0 0
0.697 -11.976 -1.335 0 0 0
0.734 -11.969 -1.335 0 0 0
0.772 -11.965 -1.334 0 0 0
0.809 -11.955 -1.333 0 0 0
0.827 -11.943 -1.332 0 0 0
0.865 -11.941 -1.332 0 0 0
0.903 -11.956 -1.334 0 0 0
0.939 -11.925 -1.331 0 0 0
0.978 -11.938 -1.333 0 0 0
1.016 -11.949 -1.335 0 0 0
1.054 -11.951 -1.335 0 0 0
1.073 -11.95 -1.335 0 0 0
1.112 -11.964 -1.338 0 0 0
1.148 -11.941 -1.335 0 0 0
1.185 -11.935 -1.335 0 0 0
1.224 -11.945 -1.337 0 0 0
1.26 -11.926 -1.335 0 0 0
1.296 -11.906 -1.332 0 0 0
1.315 -11.906 -1.333 0 0 0
1.351 -11.888 -1.331 0 0 0
1.388 -11.883 -1.331 0 0 0
1.427 -11.893 -1.333 0 0 0
1.462 -11.87 -1.33 0 0 0
1.5 -11.868 -1.331 0 0 0
1.539 -11.879 -1.333 0 0 0
1.575 -11.868 -1.332 0 0 0
1.594 -11.862 -1.331 0 0 0
1.63 -11.855 -1.331 0 0 0
1.667 -11.847 -1.331 0 0 0
1.704 -11.838 -1.33 0 0 0
1.742 -11.835 -1.331 0 0 0
1.778 -11.827 -1.33 0 0 0
1.818 -11.839 -1.333 0 0 0
1.834 -11.819 -1.33 0 0 0
1.872 -11.819 -1.331 0 0 0
1.91 -11.819 -1.332 0 0 0
1.949 -11.82 -1.333 0 0 0
1.986 -11.814 -1.333 0 0 0
2.022 -11.804 -1.332 0 0 0
2.06 -11.8 -1.333 0 0 0
2.077 -11.791 -1.332 0 0 0
2.114 -11.784 -1.332 0 0 0
2.152 -11.781 -1.332 0 0 0
2.186 -11.759 -1.33 0 0 0
2.225 -11.762 -1.332 0 0 0
2.261 -11.753 -1.331 0 0 0
2.298 -11.741 -1.331 0 0 0
2.316 -11.74 -1.331 0 0 0
2.354 -11.734 -1.331 0 0 0
2.387 -11.709 -1.329 0 0 0
2.424 -11.706 -1.33 0 0 0
2.462 -11.7 -1.33 0 0 0
2.494 -11.673 -1.327 0 0 0
2.528 -11.651 -1.326 0 0 0
2.484 -11.358 -1.288 0 0 0
2.531 -11.405 -1.295 0 0 0
2.627 -11.666 -1.33 0 0 0
2.658 -11.631 -1.327 0 0 0
2.638 -11.379 -1.295 0 0 0
2.738 -11.643 -1.33 0 0 0
2.774 -11.632 -1.33 0 0 0
2.808 -11.616 -1.329 0 0 0
2.574 -10.564 -1.191 0 0 0
2.866 -11.614 -1.331 0 0 0
2.728 -10.9 -1.238 0 0 0
2.933 -11.572 -1.328 0 0 0
2.975 -11.586 -1.331 0 0 0
3.011 -11.575 -1.33 0 0 0
3.048 -11.567 -1.331 0 0 0
3.067 -11.566 -1.331 0 0 0
3.102 -11.553 -1.331 0 0 0
2.832 -10.405 -1.18 0 0 0
3.092 -11.231 -1.291 0 0 0
2.891 -10.364 -1.177 0 0 0
3.253 -11.534 -1.334 0 0 0
3.29 -11.528 -1.334 0 0 0
3.311 -11.53 -1.335 0 0 0
3.35 -11.531 -1.337 0 0 0
3.39 -11.534 -1.338 0 0 0
3.423 -11.512 -1.337 0 0 0
3.018 -10.022 -1.139 0 0 0
3.401 -11.176 -1.295 0 0 0
3.536 -11.494 -1.339 0 0 0
3.073 -9.922 -1.129 0 0 0
3.199 -10.215 -1.17 0 0 0
3.565 -11.271 -1.313 0 0 0
3.661 -11.451 -1.338 0 0 0
3.698 -11.441 -1.339 0 0 0
3.659 -11.199 -1.308 0 0 0
3.763 -11.397 -1.336 0 0 0
3.771 -11.363 -1.332 0 0 0
3.423 -10.199 -1.177 0 0 0
3.536 -10.429 -1.209 0 0 0
3.853 -11.253 -1.322 0 0 0
3.632 -10.494 -1.221 0 0 0
3.941 -11.278 -1.329 0 0 0
3.945 -11.175 -1.317 0 0 0
3.877 -10.873 -1.277 0 0 0
4.02 -11.22 -1.325 0 0 0
3.93 -10.86 -1.278 0 0 0
4.036 -11.045 -1.305 0 0 0
4.113 -11.148 -1.321 0 0 0
3.821 -10.25 -1.2 0 0 0
3.793 -10.078 -1.178 0 0 0
4.283 -11.28 -1.344 0 0 0
4.151 -10.88 -1.29 0 0 0
3.861 -10.018 -1.174 0 0 0
3.966 -10.196 -1.2 0 0 0
3.928 -10.005 -1.175 0 0 0
4.336 -10.948 -1.307 0 0 0
4.015 -10.041 -1.184 0 0 0
4.283 -10.617 -1.265 0 0 0
4.193 -10.347 -1.229 0 0 0
4.361 -10.667 -1.275 0 0 0
4.348 -10.539 -1.259 0 0 0
4.331 -10.404 -1.242 0 0 0
4.309 -10.261 -1.224 0 0 0
4.467 -10.545 -1.266 0 0 0
4.241 -9.921 -1.181 0 0 0
4.482 -10.444 -1.254 0 0 0
4.443 -10.262 -1.231 0 0 0
4.669 -10.694 -1.293 0 0 0
4.686 -10.643 -1.288 0 0 0
4.649 -10.468 -1.266 0 0 0
4.669 -10.425 -1.262 0 0 0
4.707 -10.421 -1.263 0 0 0
4.723 -10.37 -1.258 0 0 0
4.793 -10.48 -1.275 0 0 0
4.826 -10.465 -1.275 0 0 0
4.834 -10.395 -1.267 0 0 0
4.823 -10.287 -1.254 0 0 0
4.868 -10.3 -1.258 0 0 0
4.892 -10.267 -1.255 0 0 0
4.917 -10.277 -1.258 0 0 0
5.001 -10.369 -1.273 0 0 0
4.746 -9.758 -1.189 0 0 0
4.803 -9.799 -1.197 0 0 0
5.093 -10.311 -1.272 0 0 0
5.071 -10.184 -1.256 0 0 0
5.103 -10.168 -1.256 0 0 0
5.119 -10.162 -1.256 0 0 0
5.09 -10.024 -1.239 0 0 0
5.136 -10.038 -1.243 0 0 0
5.221 -10.126 -1.258 0 0 0
5.219 -10.044 -1.249 0 0 0
5.303 -10.128 -1.263 0 0 0
5.329 -10.101 -1.261 0 0 0
5.268 -9.907 -1.236 0 0 0
5.363 -10.049 -1.258 0 0 0
5.431 -10.101 -1.268 0 0 0
5.442 -10.045 -1.262 0 0 0
5.409 -9.909 -1.245 0 0 0
5.51 -10.019 -1.263 0 0 0
5.526 -9.974 -1.259 0 0 0
5.559 -9.96 -1.26 0 0 0
5.582 -9.964 -1.261 0 0 0
5.612 -9.944 -1.261 0 0 0
5.649 -9.937 -1.263 0 0 0
5.686 -9.93 -1.264 0 0 0
5.697 -9.877 -1.259 0 0 0
5.77 -9.931 -1.27 0 0 0
5.839 -9.978 -1.279 0 0 0
5.872 -9.962 -1.28 0 0 0
5.858 -9.903 -1.272 0 0 0
5.913 -9.925 -1.278 0 0 0
5.973 -9.955 -1.286 0 0 0
5.927 -9.806 -1.266 0 0 0
5.961 -9.795 -1.267 0 0 0
5.909 -9.639 -1.247 0 0 0
5.99 -9.738 -1.263 0 0 0
6.039 -9.749 -1.268 0 0 0
6.005 -9.626 -1.252 0 0 0
6.149 -9.788 -1.279 0 0 0
6.121 -9.677 -1.265 0 0 0
6.246 -9.807 -1.288 0 0 0
6.275 -9.784 -1.287 0 0 0
6.276 -9.752 -1.284 0 0 0
6.247 -9.639 -1.27 0 0 0
6.299 -9.652 -1.275 0 0 0
6.301 -9.589 -1.268 0 0 0
6.374 -9.636 -1.278 0 0 0
6.395 -9.601 -1.276 0 0 0
6.423 -9.577 -1.276 0 0 0
6.477 -9.593 -1.281 0 0 0
6.482 -9.568 -1.279 0 0 0
6.452 -9.459 -1.265 0 0 0
6.512 -9.483 -1.272 0 0 0
6.526 -9.44 -1.269 0 0 0
6.531 -9.384 -1.263 0 0 0
6.583 -9.396 -1.268 0 0 0
6.639 -9.412 -1.274 0 0 0
6.65 -9.397 -1.273 0 0 0
6.663 -9.353 -1.27 0 0 0
6.688 -9.326 -1.269 0 0 0
6.757 -9.36 -1.277 0 0 0
6.833 -9.403 -1.287 0 0 0
6.852 -9.367 -1.285 0 0 0
6.895 -9.364 -1.288 0 0 0
6.905 -9.347 -1.287 0 0 0
6.963 -9.364 -1.293 0 0 0
6.965 -9.305 -1.287 0 0 0
7.021 -9.32 -1.293 0 0 0
7.029 -9.269 -1.289 0 0 0
7.097 -9.297 -1.297 0 0 0
7.107 -9.25 -1.293 0 0 0
7.114 -9.229 -1.291 0 0 0
7.162 -9.232 -1.295 0 0 0
7.166 -9.177 -1.29 0 0 0
7.127 -9.068 -1.276 0 0 0
7.269 -9.189 -1.299 0 0 0
7.274 -9.137 -1.294 0 0 0
7.331 -9.149 -1.3 0 0 0
7.363 -9.131 -1.301 0 0 0
7.359 -9.096 -1.297 0 0 0
7.399 -9.087 -1.3 0 0 0
7.355 -8.974 -1.285 0 0 0
7.448 -9.031 -1.298 0 0 0
7.489 -9.023 -1.301 0 0 0
7.558 -9.048 -1.309 0 0 0
7.574 -9.009 -1.306 0 0 0
7.601 -9.012 -1.309 0 0 0
7.614 -8.97 -1.306 0 0 0
7.581 -8.875 -1.294 0 0 0
7.602 -8.842 -1.292 0 0 0
7.73 -8.936 -1.312 0 0 0
7.76 -8.913 -1.312 0 0 0
7.726 -8.818 -1.3 0 0 0
7.784 -8.857 -1.309 0 0 0
7.832 -8.855 -1.313 0 0 0
7.89 -8.864 -1.319 0 0 0
7.938 -8.861 -1.322 0 0 0
7.988 -8.862 -1.327 0 0 0
8 -8.819 -1.324 0 0 0
8.013 -8.777 -1.321 0 0 0
8.052 -8.793 -1.326 0 0 0
8.059 -8.745 -1.322 0 0 0
8.103 -8.738 -1.325 0 0 0
8.174 -8.759 -1.333 0 0 0
8.223 -8.756 -1.337 0 0 0
8.238 -8.717 -1.335 0 0 0
8.308 -8.736 -1.343 0 0 0
8.299 -8.7 -1.339 0 0 0
8.372 -8.721 -1.347 0 0 0
8.395 -8.69 -1.346 0 0 0
8.436 -8.678 -1.349 0 0 0
8.464 -8.652 -1.349 0 0 0
8.449 -8.583 -1.341 0 0 0
8.498 -8.579 -1.345 0 0 0
8.57 -8.624 -1.356 0 0 0
8.621 -8.621 -1.36 0 0 0
8.63 -8.576 -1.357 0 0 0
11.763 -7.187 -1.564 0 0 0
11.873 -7.051 -1.567 0 0 0
11.905 -7.045 -1.57 0 0 0
11.906 -6.995 -1.567 0 0 0
11.933 -6.961 -1.568 0 0 0
12.083 -6.771 -1.572 0 0 0
12.13 -6.748 -1.576 0 0 0
12.129 -6.697 -1.573 0 0 0
12.28 -6.457 -1.575 0 0 0
11.06 -5.768 -1.396 0 0 0
13.336 -4.688 -1.609 0 0 0
13.623 -4.172 -1.623 0 0 0
13.714 -4.153 -1.633 0 0 0
13.706 -4.104 -1.631 0 0 0
13.734 -4.065 -1.633 0 0 0
13.762 -4.027 -1.635 0 0 0
13.801 -3.991 -1.638 0 0 0
13.824 -3.974 -1.64 0 0 0
13.783 -3.916 -1.633 0 0 0
13.815 -3.878 -1.636 0 0 0
13.836 -3.837 -1.637 0 0 0
13.883 -3.803 -1.642 0 0 0
13.891 -3.758 -1.641 0 0 0
13.929 -3.722 -1.645 0 0 0
13.912 -3.694 -1.642 0 0 0
13.981 -3.665 -1.649 0 0 0
13.977 -3.617 -1.647 0 0 0
13.991 -3.574 -1.648 0 0 0
13.969 -3.522 -1.643 0 0 0
13.997 -3.482 -1.646 0 0 0
13.958 -3.426 -1.639 0 0 0
13.989 -3.41 -1.642 0 0 0
13.98 -3.361 -1.64 0 0 0
13.992 -3.318 -1.64 0 0 0
13.933 -3.258 -1.631 0 0 0
13.926 -3.21 -1.629 0 0 0
12.699 -1.931 -1.444 0 0 0
12.905 -1.797 -1.467 0 0 0
12.645 9.125 -1.904 0 0 0
12.628 9.173 -1.906 0 0 0
12.615 9.224 -1.908 0 0 0
12.599 9.273 -1.911 0 0 0
12.595 9.332 -1.915 0 0 0
12.586 9.387 -1.918 0 0 0
12.572 9.438 -1.921 0 0 0
12.565 9.494 -1.925 0 0 0
12.58 9.537 -1.93 0 0 0
12.561 9.585 -1.932 0 0 0
12.562 9.648 -1.937 0 0 0
12.555 9.706 -1.941 0 0 0
12.562 9.775 -1.947 0 0 0
12.555 9.832 -1.951 0 0 0
12.619 9.947 -1.968 0 0 0
12.637 9.994 -1.974 0 0 0
12.59 10.021 -1.971 0 0 0
12.552 10.056 -1.97 0 0 0
12.485 10.066 -1.964 0 0 0
12.423 10.08 -1.958 0 0 0
12.364 10.097 -1.954 0 0 0
12.332 10.136 -1.954 0 0 0
12.265 10.145 -1.947 0 0 0
12.241 10.158 -1.946 0 0 0
12.183 10.175 -1.942 0 0 0
12.138 10.202 -1.939 0 0 0
12.113 10.246 -1.94 0 0 0
12.119 10.316 -1.947 0 0 0
12.11 10.375 -1.951 0 0 0
12.07 10.373 -1.947 0 0 0
12.081 10.449 -1.955 0 0 0
12.034 10.475 -1.952 0 0 0
12.007 10.518 -1.954 0 0 0
11.967 10.549 -1.952 0 0 0
11.919 10.573 -1.95 0 0 0
11.881 10.607 -1.949 0 0 0
11.854 10.616 -1.947 0 0 0
11.809 10.643 -1.945 0 0 0
11.787 10.69 -1.947 0 0 0
5.839 14.155 -1.866 0 0 0
5.793 14.17 -1.865 0 0 0
5.765 14.164 -1.863 0 0 0
5.715 14.169 -1.861 0 0 0
5.682 14.215 -1.865 0 0 0
5.601 14.141 -1.852 0 0 0
5.567 14.186 -1.856 0 0 0
5.51 14.17 -1.851 0 0 0
5.468 14.195 -1.852 0 0 0
5.429 14.161 -1.846 0 0 0
5.408 14.239 -1.855 0 0 0
5.355 14.233 -1.852 0 0 0
5.276 14.159 -1.839 0 0 0
5.23 14.17 -1.838 0 0 0
5.189 14.197 -1.839 0 0 0
5.129 14.169 -1.833 0 0 0
5.106 14.177 -1.833 0 0 0
5.054 14.171 -1.83 0 0 0
5.026 14.235 -1.837 0 0 0
4.951 14.163 -1.824 0 0 0
4.905 14.174 -1.824 0 0 0
4.861 14.19 -1.824 0 0 0
4.807 14.179 -1.82 0 0 0
4.816 14.278 -1.833 0 0 0
4.762 14.267 -1.829 0 0 0
4.709 14.257 -1.826 0 0 0
4.646 14.214 -1.818 0 0 0
4.595 14.211 -1.815 0 0 0
4.539 14.188 -1.81 0 0 0
4.483 14.168 -1.805 0 0 0
4.444 14.197 -1.807 0 0 0
4.436 14.251 -1.814 0 0 0
4.37 14.197 -1.804 0 0 0
4.311 14.163 -1.797 0 0 0
4.267 14.177 -1.797 0 0 0
4.222 14.19 -1.797 0 0 0
4.198 14.272 -1.807 0 0 0
4.138 14.235 -1.8 0 0 0
4.091 14.156 -1.788 0 0 0
4.049 14.177 -1.789 0 0 0
4.004 14.187 -1.789 0 0 0
3.951 14.169 -1.785 0 0 0
3.9 14.159 -1.781 0 0 0
3.856 14.171 -1.781 0 0 0
3.809 14.173 -1.78 0 0 0
3.775 14.137 -1.774 0 0 0
3.749 14.218 -1.784 0 0 0
3.695 14.193 -1.779 0 0 0
3.659 14.239 -1.784 0 0 0
3.597 14.182 -1.774 0 0 0
3.556 14.21 -1.776 0 0 0
3.505 14.192 -1.772 0 0 0
3.457 14.192 -1.771 0 0 0
3.436 14.203 -1.772 0 0 0
3.405 14.271 -1.78 0 0 0
3.357 14.269 -1.778 0 0 0
3.303 14.237 -1.772 0 0 0
3.246 14.193 -1.764 0 0 0
3.196 14.18 -1.761 0 0 0
3.172 14.285 -1.774 0 0 0
3.148 14.28 -1.773 0 0 0
3.109 14.317 -1.777 0 0 0
3.056 14.292 -1.772 0 0 0
3.026 14.373 -1.782 0 0 0
2.951 14.237 -1.762 0 0 0
2.907 14.248 -1.762 0 0 0
2.896 14.428 -1.785 0 0 0
2.847 14.418 -1.783 0 0 0
2.776 14.173 -1.749 0 0 0
2.734 14.193 -1.75 0 0 0
2.693 14.221 -1.753 0 0 0
2.654 14.259 -1.757 0 0 0
2.613 14.289 -1.76 0 0 0
2.549 14.189 -1.745 0 0 0
2.513 14.248 -1.752 0 0 0
2.486 14.225 -1.748 0 0 0
2.435 14.193 -1.743 0 0 0
2.388 14.191 -1.742 0 0 0
2.35 14.238 -1.747 0 0 0
2.31 14.274 -1.751 0 0 0
2.25 14.182 -1.737 0 0 0
2.212 14.236 -1.744 0 0 0
2.198 14.294 -1.751 0 0 0
2.182 14.497 -1.778 0 0 0
2.107 14.298 -1.75 0 0 0
2.052 14.236 -1.741 0 0 0
2.003 14.211 -1.736 0 0 0
1.954 14.187 -1.732 0 0 0
1.908 14.178 -1.73 0 0 0
1.872 14.249 -1.739 0 0 0
1.846 14.226 -1.735 0 0 0
1.818 14.363 -1.753 0 0 0
1.765 14.304 -1.745 0 0 0
1.724 14.349 -1.75 0 0 0
1.66 14.189 -1.727 0 0 0
1.627 14.294 -1.741 0 0 0
1.597 14.439 -1.76 0 0 0
1.577 14.47 -1.764 0 0 0
1.529 14.447 -1.76 0 0 0
1.494 14.552 -1.774 0 0 0
1.448 14.557 -1.774 0 0 0
1.404 14.581 -1.776 0 0 0
1.351 14.506 -1.766 0 0 0
1.314 14.609 -1.779 0 0 0
1.286 14.552 -1.771 0 0 0
1.236 14.501 -1.764 0 0 0
1.196 14.576 -1.773 0 0 0
1.154 14.623 -1.779 0 0 0
1.109 14.646 -1.782 0 0 0
1.064 14.657 -1.783 0 0 0
1.043 15.032 -1.833 0 0 0
-1.24 16.079 -1.976 0 0 0
-1.255 15.647 -1.918 0 0 0
-1.28 15.364 -1.88 0 0 0
-1.33 15.378 -1.882 0 0 0
-1.379 15.654 -1.92 0 0 0
-1.397 15.31 -1.874 0 0 0
-1.445 15.31 -1.875 0 0 0
-1.521 15.585 -1.913 0 0 0
-1.573 15.602 -1.916 0 0 0
-1.617 15.55 -1.909 0 0 0
-1.654 15.442 -1.895 0 0 0
-1.686 15.51 -1.905 0 0 0
-1.7 15.2 -1.863 0 0 0
-1.743 15.147 -1.857 0 0 0
-1.779 15.045 -1.844 0 0 0
-1.753 14.451 -1.764 0 0 0
-1.793 14.398 -1.758 0 0 0
-1.828 14.312 -1.747 0 0 0
-1.867 14.265 -1.741 0 0 0
-1.899 14.329 -1.75 0 0 0
-1.946 14.344 -1.753 0 0 0
-2.01 14.472 -1.771 0 0 0
-2.043 14.375 -1.759 0 0 0
-2.098 14.437 -1.768 0 0 0
-2.152 14.486 -1.776 0 0 0
-2.177 14.349 -1.758 0 0 0
-2.2 14.35 -1.759 0 0 0
-2.235 14.278 -1.75 0 0 0
-2.298 14.381 -1.765 0 0 0
-2.338 14.34 -1.76 0 0 0
-2.38 14.319 -1.758 0 0 0
-2.431 14.345 -1.763 0 0 0
-2.462 14.259 -1.752 0 0 0
-2.491 14.29 -1.757 0 0 0
-2.532 14.261 -1.754 0 0 0
-2.595 14.35 -1.768 0 0 0
-2.621 14.245 -1.754 0 0 0
-2.671 14.264 -1.758 0 0 0
-2.71 14.224 -1.754 0 0 0
-2.758 14.233 -1.756 0 0 0
-2.825 14.335 -1.771 0 0 0
-2.835 14.268 -1.763 0 0 0
-2.879 14.254 -1.762 0 0 0
-2.934 14.293 -1.769 0 0 0
-2.976 14.274 -1.767 0 0 0
-3.029 14.299 -1.772 0 0 0
-3.06 14.228 -1.764 0 0 0
-3.118 14.278 -1.772 0 0 0
-3.132 14.235 -1.766 0 0 0
-3.207 14.36 -1.785 0 0 0
-3.224 14.226 -1.768 0 0 0
-3.277 14.251 -1.773 0 0 0
-3.322 14.244 -1.773 0 0 0
-3.377 14.276 -1.779 0 0 0
-3.415 14.239 -1.776 0 0 0
-3.455 14.304 -1.785 0 0 0
-3.496 14.278 -1.783 0 0 0
-3.557 14.33 -1.792 0 0 0
-3.599 14.306 -1.79 0 0 0
-3.631 14.246 -1.784 0 0 0
-3.702 14.337 -1.798 0 0 0
-3.749 14.333 -1.799 0 0 0
-3.778 14.258 -1.79 0 0 0
-3.815 14.309 -1.798 0 0 0
-3.854 14.272 -1.795 0 0 0
-3.9 14.266 -1.795 0 0 0
-3.961 14.313 -1.804 0 0 0
-3.998 14.271 -1.8 0 0 0
-4.05 14.284 -1.803 0 0 0
-4.115 14.339 -1.813 0 0 0
-4.158 14.321 -1.812 0 0 0
-4.164 14.259 -1.804 0 0 0
-4.217 14.274 -1.808 0 0 0
-4.267 14.278 -1.811 0 0 0
-4.32 14.289 -1.814 0 0 0
-4.367 14.283 -1.815 0 0 0
-4.417 14.284 -1.817 0 0 0
-4.489 14.359 -1.83 0 0 0
-4.487 14.275 -1.819 0 0 0
-4.562 14.355 -1.832 0 0 0
-4.592 14.292 -1.825 0 0 0
-4.649 14.315 -1.831 0 0 0
-4.696 14.308 -1.832 0 0 0
-4.761 14.351 -1.84 0 0 0
-4.804 14.33 -1.839 0 0 0
-4.808 14.27 -1.832 0 0 0
-4.88 14.332 -1.843 0 0 0
-4.91 14.275 -1.837 0 0 0
-4.963 14.282 -1.84 0 0 0
-5.025 14.315 -1.847 0 0 0
-5.08 14.327 -1.851 0 0 0
-5.111 14.272 -1.845 0 0 0
-5.155 14.254 -1.845 0 0 0
-5.177 14.246 -1.845 0 0 0
-5.239 14.276 -1.852 0 0 0
-5.279 14.247 -1.85 0 0 0
-5.337 14.265 -1.855 0 0 0
-5.381 14.245 -1.854 0 0 0
-5.416 14.204 -1.851 0 0 0
-5.492 14.268 -1.863 0 0 0
-5.505 14.234 -1.859 0 0 0
-5.567 14.26 -1.865 0 0 0
-5.635 14.304 -1.874 0 0 0
-4.148 10.452 -1.318 0 0 0
-4.038 10.084 -1.266 0 0 0
-3.942 9.541 -1.193 0 0 0
-3.966 8.997 -1.127 0 0 0
-4.001 8.999 -1.129 0 0 0
-4.023 8.973 -1.127 0 0 0
-4.033 8.921 -1.121 0 0 0
-4.039 8.86 -1.114 0 0 0
-4.068 8.849 -1.114 0 0 0
-4.09 8.825 -1.113 0 0 0
-4.136 8.887 -1.123 0 0 0
-4.128 8.797 -1.111 0 0 0
-4.149 8.771 -1.11 0 0 0
-4.182 8.769 -1.111 0 0 0
-4.21 8.757 -1.111 0 0 0
-4.241 8.751 -1.113 0 0 0
-4.271 8.741 -1.113 0 0 0
-4.295 8.756 -1.116 0 0 0
-4.322 8.743 -1.116 0 0 0
-4.356 8.741 -1.118 0 0 0
-4.387 8.735 -1.119 0 0 0
-4.414 8.721 -1.119 0 0 0
-4.447 8.718 -1.121 0 0 0
-4.478 8.711 -1.122 0 0 0
-4.491 8.702 -1.122 0 0 0
-4.531 8.712 -1.125 0 0 0
-4.568 8.715 -1.128 0 0 0
-4.596 8.703 -1.128 0 0 0
-4.622 8.685 -1.128 0 0 0
-4.663 8.696 -1.132 0 0 0
-4.685 8.673 -1.13 0 0 0
-4.722 8.676 -1.133 0 0 0
-4.733 8.663 -1.132 0 0 0
-4.758 8.645 -1.132 0 0 0
-4.799 8.654 -1.136 0 0 0
-4.842 8.666 -1.14 0 0 0
-4.876 8.663 -1.142 0 0 0
-4.909 8.658 -1.143 0 0 0
-4.945 8.658 -1.146 0 0 0
-4.957 8.649 -1.145 0 0 0
-5 8.661 -1.15 0 0 0
-5.029 8.646 -1.15 0 0 0
-5.061 8.639 -1.151 0 0 0
-5.101 8.645 -1.155 0 0 0
-5.134 8.64 -1.156 0 0 0
-5.172 8.64 -1.159 0 0 0
-5.209 8.641 -1.162 0 0 0
-5.223 8.633 -1.162 0 0 0
-5.268 8.647 -1.167 0 0 0
-5.3 8.637 -1.168 0 0 0
-5.339 8.64 -1.171 0 0 0
-5.366 8.624 -1.171 0 0 0
-5.404 8.623 -1.173 0 0 0
-5.441 8.622 -1.176 0 0 0
-5.455 8.615 -1.176 0 0 0
-5.499 8.624 -1.18 0 0 0
-5.582 8.633 -1.187 0 0 0
-5.598 8.598 -1.185 0 0 0
-5.638 8.601 -1.188 0 0 0
-5.661 8.576 -1.187 0 0 0
-5.818 8.607 -1.202 0 0 0
-5.89 8.596 -1.206 0 0 0
-6.26 8.575 -1.233 0 0 0
-6.645 8.581 -1.265 0 0 0
-6.7 8.596 -1.271 0 0 0
-6.739 8.59 -1.273 0 0 0
-6.832 8.57 -1.279 0 0 0
-6.873 8.565 -1.282 0 0 0
-6.908 8.554 -1.284 0 0 0
-6.954 8.555 -1.288 0 0 0
-6.989 8.543 -1.289 0 0 0
-10.577 10.031 -1.767 0 0 0
-10.5 9.896 -1.747 0 0 0
-10.365 9.707 -1.716 0 0 0
-10.324 9.459 -1.689 0 0 0
-10.314 9.391 -1.682 0 0 0
-10.317 9.334 -1.677 0 0 0
-10.311 9.27 -1.671 0 0 0
-10.31 9.211 -1.665 0 0 0
-10.301 9.145 -1.659 0 0 0
-10.303 9.089 -1.654 0 0 0
-10.309 9.066 -1.652 0 0 0
-10.306 9.006 -1.647 0 0 0
-10.297 8.941 -1.64 0 0 0
-10.309 8.895 -1.637 0 0 0
-10.333 8.803 -1.632 0 0 0
-10.336 8.75 -1.627 0 0 0
-10.338 8.724 -1.625 0 0 0
-10.338 8.668 -1.62 0 0 0
-10.297 8.525 -1.604 0 0 0
-10.405 8.559 -1.618 0 0 0
-10.441 8.534 -1.619 0 0 0
-10.485 8.515 -1.622 0 0 0
-10.648 8.509 -1.639 0 0 0
-10.688 8.486 -1.641 0 0 0
-10.746 8.477 -1.647 0 0 0
-10.815 8.476 -1.654 0 0 0
-11.061 8.612 -1.691 0 0 0
-10.954 8.475 -1.669 0 0 0
-10.996 8.479 -1.673 0 0 0
-11.073 8.483 -1.682 0 0 0
-11.117 8.461 -1.685 0 0 0
-11.229 8.491 -1.699 0 0 0
-11.249 8.451 -1.698 0 0 0
-12.086 8.385 -1.785 0 0 0
-12.175 8.389 -1.795 0 0 0
-12.247 8.382 -1.802 0 0 0
-12.329 8.382 -1.811 0 0 0
-12.413 8.382 -1.821 0 0 0
-12.469 8.391 -1.828 0 0 0
-12.533 8.377 -1.834 0 0 0
-12.594 8.36 -1.839 0 0 0
-12.789 8.374 -1.862 0 0 0
-12.882 8.377 -1.873 0 0 0
-12.96 8.37 -1.881 0 0 0
-13.054 8.402 -1.894 0 0 0
-13.159 8.411 -1.907 0 0 0
-13.266 8.362 -1.916 0 0 0
-13.322 8.339 -1.92 0 0 0
-15.45 -3.555 -1.939 0 0 0
-15.23 -3.554 -1.91 0 0 0
-15.221 -3.602 -1.91 0 0 0
-15.14 -3.608 -1.9 0 0 0
-15.123 -3.654 -1.899 0 0 0
-15.079 -3.694 -1.894 0 0 0
-15.059 -3.739 -1.893 0 0 0
-15.069 -3.792 -1.896 0 0 0
-15.055 -3.839 -1.896 0 0 0
-15.05 -3.888 -1.897 0 0 0
-15.009 -3.928 -1.893 0 0 0
-14.97 -3.943 -1.889 0 0 0
-14.95 -3.988 -1.888 0 0 0
-14.938 -4.034 -1.888 0 0 0
-14.917 -4.079 -1.886 0 0 0
-14.874 -4.118 -1.882 0 0 0
-14.876 -4.169 -1.884 0 0 0
-14.84 -4.209 -1.881 0 0 0
-14.828 -4.23 -1.88 0 0 0
-14.814 -4.277 -1.88 0 0 0
-14.829 -4.332 -1.884 0 0 0
-14.846 -4.388 -1.889 0 0 0
-14.808 -4.427 -1.885 0 0 0
-14.775 -4.467 -1.882 0 0 0
-14.687 -4.491 -1.872 0 0 0
-14.7 -4.521 -1.875 0 0 0
-14.644 -4.554 -1.869 0 0 0
-14.602 -4.591 -1.865 0 0 0
-13.237 -6.794 -1.807 0 0 0
-13.213 -6.835 -1.807 0 0 0
-13.165 -6.862 -1.803 0 0 0
-13.168 -6.917 -1.807 0 0 0
-13.108 -6.937 -1.801 0 0 0
-13.125 -6.999 -1.807 0 0 0
-13.119 -7.023 -1.808 0 0 0
-13.071 -7.103 -1.807 0 0 0
-13.043 -7.141 -1.806 0 0 0
-13.064 -7.206 -1.813 0 0 0
-13.024 -7.237 -1.81 0 0 0
-12.948 -7.248 -1.802 0 0 0
-12.939 -7.297 -1.804 0 0 0
-12.89 -7.295 -1.798 0 0 0
-12.683 -7.498 -1.788 0 0 0
-12.678 -7.522 -1.789 0 0 0
-12.644 -7.555 -1.787 0 0 0
-12.593 -7.579 -1.783 0 0 0
-12.586 -7.628 -1.786 0 0 0
-12.562 -7.668 -1.786 0 0 0
-12.505 -7.687 -1.78 0 0 0
-9.488 -8.626 -1.53 0 0 0
-9.424 -8.676 -1.528 0 0 0
-9.267 -8.777 -1.522 0 0 0
-9.183 -8.752 -1.512 0 0 0
-9.176 -8.8 -1.516 0 0 0
-9.14 -8.821 -1.514 0 0 0
-9.035 -8.775 -1.499 0 0 0
-8.961 -8.729 -1.488 0 0 0
-8.937 -8.762 -1.489 0 0 0
-8.867 -8.748 -1.481 0 0 0
-8.839 -8.774 -1.481 0 0 0
-8.859 -8.85 -1.49 0 0 0
-8.807 -8.854 -1.485 0 0 0
-8.776 -8.878 -1.485 0 0 0
-8.703 -8.831 -1.473 0 0 0
-8.628 -8.81 -1.464 0 0 0
-8.615 -8.853 -1.467 0 0 0
-8.559 -8.85 -1.461 0 0 0
-8.486 -8.83 -1.452 0 0 0
-8.486 -8.886 -1.458 0 0 0
-8.381 -8.831 -1.443 0 0 0
-8.453 -8.935 -1.46 0 0 0
-8.346 -8.878 -1.444 0 0 0
-8.311 -8.897 -1.443 0 0 0
-8.31 -8.952 -1.448 0 0 0
-8.279 -8.975 -1.448 0 0 0
-8.227 -8.974 -1.443 0 0 0
-8.22 -9.024 -1.447 0 0 0
-8.166 -9.022 -1.442 0 0 0
-8.158 -9.04 -1.443 0 0 0
-8.12 -9.056 -1.441 0 0 0
-8.052 -9.037 -1.433 0 0 0
-8.042 -9.083 -1.437 0 0 0
-7.995 -9.087 -1.433 0 0 0
-7.999 -9.149 -1.44 0 0 0
-7.96 -9.162 -1.438 0 0 0
-7.936 -9.164 -1.436 0 0 0
-7.887 -9.165 -1.432 0 0 0
-7.823 -9.149 -1.424 0 0 0
-7.783 -9.16 -1.422 0 0 0
-7.753 -9.183 -1.422 0 0 0
-7.742 -9.229 -1.425 0 0 0
-7.738 -9.283 -1.431 0 0 0
-7.702 -9.27 -1.426 0 0 0
-7.278 -8.813 -1.342 0 0 0
-7.573 -9.232 -1.411 0 0 0
-7.529 -9.237 -1.408 0 0 0
-7.507 -9.268 -1.409 0 0 0
-7.473 -9.286 -1.408 0 0 0
-7.43 -9.292 -1.405 0 0 0
-7.371 -9.278 -1.399 0 0 0
-7.176 -9.061 -1.36 0 0 0
-7.267 -9.236 -1.386 0 0 0
-7.248 -9.272 -1.388 0 0 0
-7.25 -9.335 -1.395 0 0 0
-7.252 -9.399 -1.402 0 0 0
-7.216 -9.412 -1.4 0 0 0
-7.22 -9.479 -1.408 0 0 0
-7.134 -9.397 -1.392 0 0 0
-7.113 -9.43 -1.394 0 0 0
-7.073 -9.438 -1.392 0 0 0
-7.05 -9.47 -1.393 0 0 0
-6.98 -9.438 -1.384 0 0 0
-6.982 -9.503 -1.391 0 0 0
-6.95 -9.522 -1.391 0 0 0
-6.949 -9.552 -1.394 0 0 0
-6.889 -9.532 -1.387 0 0 0
-6.83 -9.513 -1.38 0 0 0
-6.844 -9.596 -1.39 0 0 0
-6.737 -9.509 -1.373 0 0 0
-6.675 -9.484 -1.365 0 0 0
-6.703 -9.588 -1.379 0 0 0
-6.692 -9.637 -1.383 0 0 0
-6.696 -9.675 -1.388 0 0 0
-6.651 -9.675 -1.384 0 0 0
-6.627 -9.706 -1.386 0 0 0
-6.488 -9.566 -1.36 0 0 0
-6.502 -9.652 -1.37 0 0 0
-6.386 -9.543 -1.35 0 0 0
-6.437 -9.686 -1.369 0 0 0
-6.44 -9.724 -1.374 0 0 0
-6.427 -9.771 -1.378 0 0 0
-6.469 -9.902 -1.396 0 0 0
-6.346 -9.781 -1.373 0 0 0
-6.313 -9.798 -1.373 0 0 0
-6.254 -9.772 -1.366 0 0 0
-6.247 -9.83 -1.372 0 0 0
-6.208 -9.802 -1.366 0 0 0
-6.096 -9.692 -1.345 0 0 0
-6.107 -9.778 -1.356 0 0 0
-6.041 -9.74 -1.347 0 0 0
-6.08 -9.872 -1.365 0 0 0
-6.065 -9.918 -1.369 0 0 0
-5.981 -9.849 -1.355 0 0 0
-6.037 -9.977 -1.374 0 0 0
-5.885 -9.794 -1.342 0 0 0
-5.996 -10.052 -1.38 0 0 0
-5.801 -9.793 -1.336 0 0 0
-5.81 -9.879 -1.347 0 0 0
-5.701 -9.764 -1.326 0 0 0
-5.704 -9.84 -1.335 0 0 0
-5.727 -9.916 -1.345 0 0 0
-5.72 -9.975 -1.352 0 0 0
-5.711 -10.033 -1.358 0 0 0
-5.655 -10.008 -1.351 0 0 0
-5.614 -10.008 -1.349 0 0 0
-5.554 -9.974 -1.34 0 0 0
-5.526 -9.998 -1.342 0 0 0
-5.562 -10.139 -1.361 0 0 0
-5.587 -10.223 -1.372 0 0 0
-5.5 -10.139 -1.357 0 0 0
-5.412 -10.051 -1.34 0 0 0
-5.59 -10.462 -1.401 0 0 0
-5.457 -10.29 -1.372 0 0 0
-5.331 -10.128 -1.344 0 0 0
-5.573 -10.672 -1.425 0 0 0
-5.205 -10.002 -1.322 0 0 0
-5.475 -10.605 -1.411 0 0 0
-5.113 -9.978 -1.313 0 0 0
-5.003 -9.838 -1.289 0 0 0
-5.438 -10.782 -1.429 0 0 0
-5.025 -10.038 -1.315 0 0 0
-5.353 -10.782 -1.424 0 0 0
-5.3 -10.718 -1.413 0 0 0
-4.975 -10.136 -1.324 0 0 0
-5.304 -10.897 -1.435 0 0 0
-5.243 -10.858 -1.427 0 0 0
-5.194 -10.844 -1.423 0 0 0
-4.915 -10.343 -1.345 0 0 0
-5.036 -10.685 -1.394 0 0 0
-5.14 -10.997 -1.438 0 0 0
-5.123 -11.005 -1.438 0 0 0
-5.077 -10.996 -1.434 0 0 0
-5.039 -11.005 -1.433 0 0 0
-5.004 -11.02 -1.433 0 0 0
-4.962 -11.018 -1.431 0 0 0
-4.93 -11.041 -1.432 0 0 0
-4.842 -10.935 -1.414 0 0 0
-4.867 -11.038 -1.428 0 0 0
-4.821 -11.028 -1.424 0 0 0
-4.631 -10.683 -1.371 0 0 0
-4.398 -10.231 -1.303 0 0 0
-4.722 -11.086 -1.426 0 0 0
-4.68 -11.082 -1.423 0 0 0
-4.625 -11.05 -1.416 0 0 0
-4.6 -11.086 -1.42 0 0 0
-4.581 -11.09 -1.419 0 0 0
-4.543 -11.097 -1.418 0 0 0
-4.503 -11.098 -1.416 0 0 0
-4.469 -11.116 -1.417 0 0 0
-4.429 -11.117 -1.415 0 0 0
-3.953 -10.005 -1.252 0 0 0
-4.312 -11.022 -1.397 0 0 0
-4.344 -11.157 -1.416 0 0 0
-4.304 -11.157 -1.414 0 0 0
-4.261 -11.15 -1.411 0 0 0
-4.224 -11.158 -1.41 0 0 0
-4.189 -11.171 -1.41 0 0 0
-4.151 -11.177 -1.409 0 0 0
-4.114 -11.185 -1.408 0 0 0
-4.096 -11.189 -1.408 0 0 0
-4.054 -11.185 -1.405 0 0 0
-4.018 -11.194 -1.405 0 0 0
-3.944 -11.096 -1.389 0 0 0
-3.94 -11.197 -1.402 0 0 0
-3.904 -11.209 -1.402 0 0 0
-3.87 -11.223 -1.402 0 0 0
-3.853 -11.231 -1.402 0 0 0
-3.813 -11.228 -1.4 0 0 0
-3.775 -11.234 -1.399 0 0 0
-3.739 -11.242 -1.399 0 0 0
-3.695 -11.23 -1.395 0 0 0
-3.66 -11.239 -1.395 0 0 0
-3.628 -11.262 -1.397 0 0 0
-3.611 -11.271 -1.397 0 0 0
-3.575 -11.279 -1.397 0 0 0
-3.533 -11.271 -1.394 0 0 0
-3.495 -11.273 -1.393 0 0 0
-3.455 -11.269 -1.39 0 0 0
-3.418 -11.276 -1.39 0 0 0
-3.386 -11.296 -1.391 0 0 0
-3.345 -11.223 -1.38 0 0 0
-3.327 -11.293 -1.389 0 0 0
-3.298 -11.324 -1.392 0 0 0
-3.261 -11.332 -1.391 0 0 0
-3.226 -11.344 -1.392 0 0 0
-3.19 -11.353 -1.391 0 0 0
-3.158 -11.374 -1.393 0 0 0
-3.119 -11.372 -1.391 0 0 0
-3.103 -11.385 -1.392 0 0 0
-3.07 -11.406 -1.394 0 0 0
-3.031 -11.404 -1.392 0 0 0
-2.666 -10.148 -1.216 0 0 0
-2.955 -11.406 -1.39 0 0 0
-2.917 -11.407 -1.389 0 0 0
-2.883 -11.42 -1.389 0 0 0
-2.861 -11.409 -1.387 0 0 0
-2.828 -11.43 -1.389 0 0 0
-2.458 -10.057 -1.197 0 0 0
-2.753 -11.436 -1.387 0 0 0
-2.706 -11.398 -1.381 0 0 0
-2.679 -11.441 -1.386 0 0 0
-2.637 -11.425 -1.382 0 0 0
-2.617 -11.419 -1.381 0 0 0
-2.35 -10.396 -1.238 0 0 0
-2.36 -10.597 -1.265 0 0 0
-2.51 -11.447 -1.381 0 0 0
-2.472 -11.447 -1.38 0 0 0
-2.437 -11.457 -1.381 0 0 0
-2.395 -11.437 -1.377 0 0 0
-2.378 -11.445 -1.377 0 0 0
-2.343 -11.456 -1.378 0 0 0
-2.235 -11.104 -1.328 0 0 0
-2.269 -11.461 -1.377 0 0 0
-2.235 -11.48 -1.378 0 0 0
-2.197 -11.479 -1.377 0 0 0
-2.16 -11.478 -1.376 0 0 0
-2.124 -11.486 -1.376 0 0 0
-2.107 -11.496 -1.377 0 0 0
-2.07 -11.496 -1.376 0 0 0
-2.033 -11.499 -1.376 0 0 0
-2 -11.521 -1.378 0 0 0
-1.958 -11.494 -1.373 0 0 0
-1.926 -11.525 -1.377 0 0 0
-1.864 -11.371 -1.355 0 0 0
-1.869 -11.521 -1.375 0 0 0
-1.835 -11.538 -1.377 0 0 0
-1.798 -11.536 -1.375 0 0 0
-1.76 -11.532 -1.374 0 0 0
-1.725 -11.547 -1.375 0 0 0
-1.688 -11.545 -1.374 0 0 0
-1.65 -11.542 -1.373 0 0 0
-1.632 -11.541 -1.373 0 0 0
-1.413 -10.204 -1.19 0 0 0
-1.56 -11.561 -1.374 0 0 0
-1.524 -11.563 -1.374 0 0 0
-1.486 -11.558 -1.373 0 0 0
-1.449 -11.553 -1.371 0 0 0
-1.413 -11.56 -1.371 0 0 0
-1.375 -11.556 -1.37 0 0 0
-1.358 -11.566 -1.371 0 0 0
-1.321 -11.562 -1.37 0 0 0
-1.284 -11.565 -1.37 0 0 0
-1.249 -11.576 -1.371 0 0 0
-1.212 -11.574 -1.37 0 0 0
-1.174 -11.566 -1.369 0 0 0
-1.139 -11.578 -1.37 0 0 0
-1.121 -11.587 -1.371 0 0 0
-1.084 -11.579 -1.369 0 0 0
-1.049 -11.594 -1.371 0 0 0
-1.011 -11.59 -1.37 0 0 0
-0.975 -11.587 -1.369 0 0 0
-0.938 -11.588 -1.369 0 0 0
-0.901 -11.589 -1.369 0 0 0
-0.88 -11.541 -1.362 0 0 0
-0.847 -11.589 -1.368 0 0 0
-0.807 -11.548 -1.362 0 0 0
-0.774 -11.594 -1.368 0 0 0
-0.737 -11.598 -1.368 0 0 0
-0.702 -11.62 -1.371 0 0 0
-0.665 -11.611 -1.369 0 0 0
-0.572 -10.206 -1.18 0 0 0
-0.61 -11.618 -1.37 0 0 0
-0.572 -11.584 -1.365 0 0 0
-0.537 -11.601 -1.367 0 0 0
-0.5 -11.603 -1.367 0 0 0
-0.434 -10.832 -1.263 0 0 0
-0.393 -10.616 -1.234 0 0 0
-0.408 -11.581 -1.364 0 0 0
-0.372 -11.594 -1.365 0 0 0
-0.335 -11.587 -1.364 0 0 0
-0.299 -11.594 -1.365 0 0 0
-0.263 -11.601 -1.366 0 0 0
-0.207 -10.462 -1.212 0 0 0
-0.19 -11.594 -1.365 0 0 0
-0.172 -11.593 -1.365 0 0 0
-0.135 -11.601 -1.366 0 0 0
-0.099 -11.598 -1.365 0 0 0
-0.062 -11.586 -1.363 0 0 0
-0.026 -11.58 -1.363 0 0 0
0.011 -11.586 -1.363 0 0 0
0.047 -11.578 -1.362 0 0 0
0.083 -11.586 -1.363 0 0 0
0.102 -11.596 -1.365 0 0 0
0.138 -11.583 -1.363 0 0 0
0.174 -11.573 -1.362 0 0 0
0.211 -11.594 -1.365 0 0 0
0.247 -11.572 -1.362 0 0 0
0.248 -10.273 -1.187 0 0 0
0.261 -9.6 -1.096 0 0 0
0.3 -10.361 -1.199 0 0 0
0.373 -11.55 -1.359 0 0 0
0.411 -11.579 -1.363 0 0 0
0.447 -11.579 -1.364 0 0 0
0.419 -10.115 -1.166 0 0 0
0.514 -11.456 -1.347 0 0 0
0.55 -11.452 -1.347 0 0 0
0.573 -11.552 -1.361 0 0 0
0.61 -11.55 -1.361 0 0 0
0.646 -11.556 -1.362 0 0 0
0.683 -11.554 -1.362 0 0 0
0.719 -11.55 -1.362 0 0 0
0.756 -11.555 -1.363 0 0 0
0.792 -11.551 -1.362 0 0 0
0.811 -11.558 -1.363 0 0 0
0.846 -11.545 -1.362 0 0 0
0.781 -10.258 -1.188 0 0 0
0.92 -11.554 -1.364 0 0 0
0.948 -11.45 -1.35 0 0 0
0.985 -11.459 -1.352 0 0 0
1.028 -11.534 -1.363 0 0 0
1.065 -11.545 -1.365 0 0 0
1.084 -11.549 -1.365 0 0 0
1.119 -11.536 -1.364 0 0 0
1.157 -11.546 -1.366 0 0 0
1.19 -11.515 -1.362 0 0 0
1.229 -11.537 -1.366 0 0 0
1.265 -11.531 -1.365 0 0 0
1.301 -11.521 -1.365 0 0 0
1.321 -11.533 -1.366 0 0 0
1.353 -11.497 -1.362 0 0 0
1.226 -10.167 -1.182 0 0 0
1.225 -9.901 -1.146 0 0 0
1.465 -11.511 -1.366 0 0 0
1.5 -11.499 -1.365 0 0 0
1.536 -11.492 -1.365 0 0 0
1.554 -11.491 -1.365 0 0 0
1.59 -11.483 -1.364 0 0 0
1.628 -11.491 -1.366 0 0 0
1.664 -11.488 -1.366 0 0 0
1.59 -10.202 -1.194 0 0 0
1.801 -11.307 -1.345 0 0 0
1.833 -11.282 -1.342 0 0 0
1.889 -11.399 -1.359 0 0 0
2.053 -11.385 -1.361 0 0 0
2.064 -11.248 -1.343 0 0 0
2.039 -10.922 -1.299 0 0 0
1.966 -10.355 -1.222 0 0 0
2.258 -11.206 -1.343 0 0 0
2.237 -10.927 -1.305 0 0 0
2.23 -10.728 -1.279 0 0 0
2.307 -10.923 -1.307 0 0 0
2.192 -10.228 -1.212 0 0 0
2.365 -10.86 -1.3 0 0 0
2.493 -11.27 -1.358 0 0 0
2.373 -10.657 -1.273 0 0 0
2.485 -10.992 -1.321 0 0 0
2.449 -10.683 -1.279 0 0 0
2.456 -10.412 -1.244 0 0 0
2.646 -11.058 -1.334 0 0 0
2.64 -10.882 -1.311 0 0 0
2.56 -10.485 -1.257 0 0 0
2.739 -11.06 -1.338 0 0 0
2.615 -10.425 -1.25 0 0 0
2.63 -10.345 -1.241 0 0 0
2.662 -10.337 -1.241 0 0 0
2.806 -10.752 -1.3 0 0 0
2.813 -10.642 -1.285 0 0 0
2.842 -10.683 -1.292 0 0 0
2.822 -10.479 -1.265 0 0 0
2.874 -10.539 -1.274 0 0 0
2.897 -10.492 -1.269 0 0 0
2.984 -10.675 -1.296 0 0 0
3.009 -10.637 -1.292 0 0 0
3.078 -10.75 -1.309 0 0 0
3.068 -10.654 -1.296 0 0 0
3.131 -10.743 -1.31 0 0 0
3.116 -10.57 -1.287 0 0 0
3.158 -10.588 -1.291 0 0 0
3.191 -10.58 -1.291 0 0 0
3.237 -10.612 -1.297 0 0 0
3.184 -10.323 -1.258 0 0 0
3.207 -10.281 -1.253 0 0 0
3.339 -10.645 -1.305 0 0 0
3.178 -10.024 -1.219 0 0 0
3.38 -10.544 -1.294 0 0 0
3.455 -10.662 -1.312 0 0 0
3.433 -10.481 -1.288 0 0 0
3.477 -10.502 -1.293 0 0 0
3.508 -10.488 -1.292 0 0 0
3.528 -10.492 -1.294 0 0 0
3.513 -10.342 -1.274 0 0 0
3.615 -10.531 -1.303 0 0 0
3.648 -10.518 -1.302 0 0 0
3.61 -10.306 -1.274 0 0 0
3.672 -10.377 -1.285 0 0 0
3.714 -10.391 -1.289 0 0 0
3.71 -10.332 -1.281 0 0 0
3.772 -10.4 -1.293 0 0 0
3.798 -10.369 -1.29 0 0 0
3.812 -10.307 -1.283 0 0 0
3.834 -10.267 -1.279 0 0 0
3.855 -10.226 -1.275 0 0 0
3.964 -10.415 -1.304 0 0 0
3.97 -10.381 -1.3 0 0 0
3.963 -10.267 -1.285 0 0 0
3.949 -10.137 -1.268 0 0 0
4.037 -10.266 -1.289 0 0 0
4.09 -10.307 -1.296 0 0 0
4.127 -10.305 -1.298 0 0 0
4.121 -10.198 -1.284 0 0 0
4.134 -10.182 -1.283 0 0 0
4.145 -10.12 -1.276 0 0 0
4.217 -10.202 -1.29 0 0 0
4.239 -10.167 -1.287 0 0 0
4.274 -10.161 -1.288 0 0 0
4.294 -10.118 -1.283 0 0 0
4.341 -10.141 -1.289 0 0 0
4.347 -10.067 -1.28 0 0 0
4.391 -10.126 -1.289 0 0 0
4.362 -9.974 -1.269 0 0 0
4.445 -10.076 -1.286 0 0 0
4.467 -10.041 -1.283 0 0 0
4.522 -10.079 -1.291 0 0 0
4.547 -10.05 -1.289 0 0 0
4.638 -10.164 -1.308 0 0 0
4.667 -10.185 -1.312 0 0 0
4.671 -10.111 -1.303 0 0 0
4.686 -10.061 -1.298 0 0 0
4.704 -10.017 -1.293 0 0 0
4.746 -10.024 -1.297 0 0 0
4.754 -9.961 -1.289 0 0 0
4.755 -9.883 -1.28 0 0 0
4.794 -9.924 -1.287 0 0 0
4.868 -9.996 -1.3 0 0 0
4.92 -10.021 -1.307 0 0 0
4.948 -10.001 -1.306 0 0 0
4.932 -9.889 -1.291 0 0 0
5.009 -9.964 -1.305 0 0 0
5.052 -9.973 -1.309 0 0 0
5.062 -9.953 -1.307 0 0 0
5.074 -9.9 -1.301 0 0 0
5.133 -9.938 -1.309 0 0 0
5.139 -9.873 -1.302 0 0 0
5.168 -9.853 -1.301 0 0 0
5.199 -9.837 -1.301 0 0 0
5.214 -9.791 -1.297 0 0 0
5.242 -9.807 -1.301 0 0 0
5.296 -9.832 -1.307 0 0 0
5.279 -9.729 -1.294 0 0 0
5.375 -9.83 -1.312 0 0 0
5.345 -9.704 -1.295 0 0 0
5.374 -9.685 -1.295 0 0 0
5.396 -9.653 -1.292 0 0 0
5.47 -9.714 -1.304 0 0 0
5.44 -9.624 -1.292 0 0 0
5.493 -9.648 -1.298 0 0 0
5.538 -9.655 -1.302 0 0 0
5.525 -9.564 -1.291 0 0 0
5.57 -9.572 -1.295 0 0 0
5.564 -9.493 -1.285 0 0 0
5.666 -9.596 -1.304 0 0 0
5.658 -9.55 -1.298 0 0 0
5.717 -9.58 -1.305 0 0 0
5.722 -9.521 -1.299 0 0 0
5.739 -9.481 -1.296 0 0 0
5.78 -9.482 -1.299 0 0 0
5.805 -9.455 -1.297 0 0 0
5.863 -9.484 -1.305 0 0 0
5.844 -9.419 -1.296 0 0 0
5.909 -9.458 -1.305 0 0 0
5.865 -9.322 -1.286 0 0 0
5.956 -9.4 -1.302 0 0 0
5.994 -9.395 -1.304 0 0 0
6.001 -9.341 -1.298 0 0 0
6.087 -9.41 -1.312 0 0 0
6.065 -9.344 -1.303 0 0 0
6.111 -9.35 -1.307 0 0 0
6.127 -9.311 -1.304 0 0 0
6.168 -9.31 -1.307 0 0 0
6.157 -9.229 -1.297 0 0 0
6.236 -9.284 -1.309 0 0 0
6.247 -9.238 -1.305 0 0 0
6.29 -9.24 -1.308 0 0 0
6.323 -9.256 -1.313 0 0 0
6.361 -9.249 -1.315 0 0 0
6.418 -9.27 -1.322 0 0 0
6.442 -9.241 -1.32 0 0 0
6.478 -9.231 -1.322 0 0 0
6.49 -9.188 -1.318 0 0 0
6.51 -9.184 -1.319 0 0 0
6.523 -9.143 -1.316 0 0 0
6.481 -9.024 -1.299 0 0 0
6.493 -8.981 -1.296 0 0 0
6.627 -9.105 -1.32 0 0 0
6.647 -9.073 -1.318 0 0 0
6.709 -9.096 -1.325 0 0 0
6.749 -9.121 -1.331 0 0 0
6.776 -9.098 -1.331 0 0 0
6.769 -9.029 -1.323 0 0 0
6.817 -9.033 -1.327 0 0 0
6.859 -9.031 -1.33 0 0 0
6.78 -8.869 -1.307 0 0 0
6.943 -9.022 -1.336 0 0 0
6.97 -8.998 -1.336 0 0 0
7.008 -9.019 -1.341 0 0 0
7.012 -8.965 -1.336 0 0 0
7.04 -8.943 -1.336 0 0 0
7.037 -8.882 -1.329 0 0 0
7.047 -8.837 -1.325 0 0 0
7.155 -8.915 -1.343 0 0 0
7.171 -8.877 -1.34 0 0 0
7.073 -8.729 -1.316 0 0 0
7.243 -8.88 -1.346 0 0 0
7.287 -8.877 -1.35 0 0 0
7.297 -8.833 -1.346 0 0 0
7.332 -8.819 -1.348 0 0 0
7.389 -8.831 -1.354 0 0 0
7.402 -8.79 -1.351 0 0 0
7.442 -8.781 -1.353 0 0 0
7.437 -8.747 -1.349 0 0 0
7.508 -8.775 -1.358 0 0 0
7.556 -8.775 -1.363 0 0 0
7.602 -8.772 -1.366 0 0 0
7.632 -8.751 -1.367 0 0 0
7.64 -8.705 -1.363 0 0 0
7.598 -8.631 -1.352 0 0 0
7.673 -8.66 -1.361 0 0 0
7.715 -8.652 -1.364 0 0 0
7.735 -8.62 -1.363 0 0 0
10.307 -8.054 -1.565 0 0 0
10.378 -8.057 -1.573 0 0 0
10.375 -8.028 -1.57 0 0 0
10.405 -7.999 -1.571 0 0 0
10.491 -8.013 -1.581 0 0 0
10.99 -7.325 -1.582 0 0 0
11.049 -7.264 -1.584 0 0 0
11.069 -7.227 -1.584 0 0 0
11.143 -7.226 -1.592 0 0 0
11.156 -7.209 -1.592 0 0 0
11.207 -7.192 -1.597 0 0 0
11.208 -7.143 -1.593 0 0 0
11.239 -7.113 -1.595 0 0 0
11.264 -7.08 -1.595 0 0 0
11.259 -7.028 -1.591 0 0 0
11.27 -6.985 -1.589 0 0 0
11.281 -6.968 -1.589 0 0 0
11.286 -6.922 -1.586 0 0 0
11.297 -6.88 -1.585 0 0 0
11.315 -6.843 -1.584 0 0 0
11.342 -6.81 -1.585 0 0 0
11.37 -6.778 -1.586 0 0 0
11.378 -6.735 -1.584 0 0 0
11.523 -6.699 -1.598 0 0 0
11.547 -6.664 -1.599 0 0 0
11.544 -6.614 -1.595 0 0 0
11.492 -6.537 -1.584 0 0 0
11.502 -6.495 -1.582 0 0 0
11.568 -6.508 -1.591 0 0 0
11.586 -6.471 -1.591 0 0 0
12.525 -4.761 -1.608 0 0 0
12.566 -4.686 -1.61 0 0 0
12.761 -4.285 -1.616 0 0 0
12.775 -4.267 -1.617 0 0 0
12.832 -4.197 -1.622 0 0 0
12.909 -4.177 -1.631 0 0 0
13.049 -4.177 -1.649 0 0 0
13.124 -4.155 -1.657 0 0 0
13.152 -4.119 -1.66 0 0 0
13.18 -4.104 -1.663 0 0 0
13.265 -4.085 -1.673 0 0 0
13.274 -4.042 -1.672 0 0 0
13.279 -3.998 -1.671 0 0 0
13.282 -3.954 -1.67 0 0 0
13.246 -3.898 -1.663 0 0 0
13.289 -3.865 -1.667 0 0 0
13.297 -3.845 -1.668 0 0 0
13.278 -3.794 -1.663 0 0 0
13.311 -3.758 -1.666 0 0 0
13.336 -3.72 -1.668 0 0 0
13.35 -3.679 -1.668 0 0 0
13.342 -3.632 -1.666 0 0 0
13.352 -3.589 -1.665 0 0 0
13.334 -3.54 -1.661 0 0 0
13.367 -3.526 -1.665 0 0 0
13.374 -3.483 -1.665 0 0 0
13.419 -3.45 -1.669 0 0 0
13.365 -3.391 -1.66 0 0 0
13.362 -3.346 -1.659 0 0 0
13.353 -3.299 -1.656 0 0 0
13.377 -3.26 -1.658 0 0 0
13.44 -3.253 -1.666 0 0 0
13.407 -3.201 -1.66 0 0 0
13.358 -3.145 -1.652 0 0 0
