-4.527 20.331 0.683 0 0 0
-4.596 20.338 0.683 0 0 0
-4.656 20.308 0.683 0 0 0
-4.732 20.345 0.684 0 0 0
-4.799 20.344 0.684 0 0 0
-4.872 20.364 0.685 0 0 0
-4.938 20.36 0.685 0 0 0
-4.981 20.395 0.686 0 0 0
-5.051 20.403 0.687 0 0 0
-5.123 20.418 0.688 0 0 0
-5.192 20.421 0.688 0 0 0
-5.258 20.414 0.688 0 0 0
-5.318 20.382 0.688 0 0 0
-5.36 20.282 0.686 0 0 0
-5.385 20.247 0.685 0 0 0
-5.458 20.266 0.686 0 0 0
-5.576 20.444 0.691 0 0 0
-5.632 20.399 0.69 0 0 0
-5.675 20.304 0.688 0 0 0
-5.776 20.417 0.692 0 0 0
-5.814 20.311 0.689 0 0 0
-5.893 20.344 0.691 0 0 0
-5.878 20.176 0.687 0 0 0
-4.57 15.523 0.577 0 0 0
-4.61 15.48 0.576 0 0 0
-4.669 15.502 0.577 0 0 0
-6.221 20.393 0.694 0 0 0
-6.251 20.264 0.691 0 0 0
-6.407 20.538 0.698 0 0 0
-6.376 20.328 0.693 0 0 0
-6.43 20.277 0.693 0 0 0
-6.532 20.375 0.696 0 0 0
-6.651 20.522 0.7 0 0 0
-6.719 20.514 0.7 0 0 0
-6.789 20.51 0.7 0 0 0
-6.821 20.39 0.698 0 0 0
-6.864 20.306 0.696 0 0 0
-6.937 20.416 0.699 0 0 0
-7.033 20.489 0.702 0 0 0
-7.08 20.416 0.7 0 0 0
-7.204 20.565 0.705 0 0 0
-7.228 20.425 0.702 0 0 0
-7.271 20.344 0.7 0 0 0
-7.383 20.455 0.704 0 0 0
-7.487 20.64 0.708 0 0 0
-7.592 20.727 0.711 0 0 0
-7.679 20.762 0.712 0 0 0
-7.638 20.455 0.706 0 0 0
-7.742 20.535 0.708 0 0 0
-7.808 20.515 0.708 0 0 0
-7.866 20.473 0.708 0 0 0
-8.027 20.696 0.714 0 0 0
-7.995 20.52 0.71 0 0 0
-8.094 20.582 0.712 0 0 0
-8.247 20.779 0.717 0 0 0
-8.325 20.785 0.718 0 0 0
-8.393 20.764 0.718 0 0 0
-8.451 20.719 0.718 0 0 0
-8.481 20.609 0.716 0 0 0
-8.538 20.655 0.717 0 0 0
-8.63 20.693 0.719 0 0 0
-8.785 20.879 0.724 0 0 0
-8.872 20.901 0.725 0 0 0
-8.886 20.754 0.722 0 0 0
-9.003 20.845 0.725 0 0 0
-9.111 20.914 0.728 0 0 0
-9.168 20.865 0.727 0 0 0
-9.191 20.83 0.727 0 0 0
-9.226 20.732 0.725 0 0 0
-9.284 20.688 0.725 0 0 0
-9.392 20.752 0.727 0 0 0
-9.453 20.713 0.727 0 0 0
-9.623 20.912 0.733 0 0 0
-9.736 20.983 0.735 0 0 0
-9.733 20.892 0.733 0 0 0
-9.768 20.796 0.732 0 0 0
-9.877 20.857 0.734 0 0 0
-9.998 20.942 0.737 0 0 0
-10.125 21.036 0.74 0 0 0
-10.197 21.017 0.74 0 0 0
-10.232 20.922 0.739 0 0 0
-10.372 21.123 0.744 0 0 0
-10.457 21.128 0.745 0 0 0
-10.5 21.048 0.744 0 0 0
-10.595 21.072 0.745 0 0 0
-10.735 21.185 0.749 0 0 0
-10.807 21.162 0.749 0 0 0
-10.844 21.071 0.748 0 0 0
-19.912 38.347 1.192 0 0 0
-19.965 38.302 1.192 0 0 0
-20.137 38.338 1.195 0 0 0
-19.901 37.601 1.177 0 0 0
-20.202 37.883 1.186 0 0 0
-20.467 38.09 1.193 0 0 0
-20.369 37.625 1.183 0 0 0
-20.461 37.512 1.181 0 0 0
-20.932 38.231 1.201 0 0 0
-20.94 37.962 1.196 0 0 0
-21.019 37.825 1.194 0 0 0
-21.314 38.073 1.202 0 0 0
-21.316 37.798 1.197 0 0 0
-21.307 37.507 1.191 0 0 0
-21.398 37.393 1.19 0 0 0
-22.014 38.188 1.212 0 0 0
-21.661 37.44 1.193 0 0 0
-21.927 37.628 1.2 0 0 0
-22.063 37.588 1.201 0 0 0
-22.089 37.364 1.197 0 0 0
-22.138 37.179 1.194 0 0 0
-32.945 54.913 1.667 0 0 0
-34.002 56.272 1.706 0 0 0
-32.941 53.563 1.64 0 0 0
-32.995 53.276 1.636 0 0 0
-33.039 52.973 1.63 0 0 0
-33.089 52.685 1.625 0 0 0
-33.144 52.406 1.621 0 0 0
-33.273 52.246 1.619 0 0 0
-33.461 52.359 1.624 0 0 0
-33.708 52.381 1.627 0 0 0
-33.967 52.421 1.631 0 0 0
-10.307 15.724 0.636 0 0 0
-10.341 15.668 0.636 0 0 0
-10.392 15.637 0.636 0 0 0
-10.421 15.627 0.636 0 0 0
-10.403 15.495 0.633 0 0 0
-10.586 15.661 0.639 0 0 0
-35.925 52.68 1.661 0 0 0
-36.177 52.694 1.664 0 0 0
-36.439 52.72 1.668 0 0 0
-36.712 52.759 1.672 0 0 0
-36.894 52.842 1.676 0 0 0
-37.162 52.872 1.68 0 0 0
-37.421 52.887 1.684 0 0 0
-31.238 43.863 1.435 0 0 0
-32.257 44.993 1.469 0 0 0
-32.497 45.028 1.473 0 0 0
-32.45 44.667 1.466 0 0 0
-33.022 45.155 1.482 0 0 0
-32.693 44.558 1.467 0 0 0
-32.776 44.378 1.465 0 0 0
-39.034 52.497 1.698 0 0 0
-21.919 29.306 1.042 0 0 0
-32.843 43.603 1.452 0 0 0
-32.803 43.267 1.445 0 0 0
-22.25 29.076 1.042 0 0 0
-22.057 28.637 1.032 0 0 0
-22.021 28.406 1.027 0 0 0
-22.828 29.256 1.053 0 0 0
-22.468 28.609 1.037 0 0 0
-23.018 29.119 1.054 0 0 0
-23.12 29.061 1.054 0 0 0
-22.954 28.667 1.045 0 0 0
-22.96 28.583 1.043 0 0 0
-23.289 28.806 1.052 0 0 0
-22.873 28.111 1.034 0 0 0
-23.033 28.127 1.036 0 0 0
-22.854 27.731 1.027 0 0 0
-22.909 27.62 1.026 0 0 0
-23.004 27.557 1.026 0 0 0
-31.614 37.737 1.33 0 0 0
-31.575 37.451 1.324 0 0 0
-31.711 37.373 1.325 0 0 0
-31.837 37.283 1.325 0 0 0
-32.038 37.28 1.328 0 0 0
-32.049 37.057 1.324 0 0 0
-32.158 36.949 1.324 0 0 0
-32.318 36.897 1.325 0 0 0
-32.329 36.794 1.324 0 0 0
-32.332 36.565 1.32 0 0 0
-32.391 36.4 1.318 0 0 0
-34.43 38.445 1.384 0 0 0
-33.48 37.151 1.347 0 0 0
-33.604 37.053 1.348 0 0 0
-33.735 36.963 1.348 0 0 0
-33.72 36.83 1.346 0 0 0
-33.974 36.874 1.35 0 0 0
-33.552 36.188 1.332 0 0 0
-33.978 36.417 1.343 0 0 0
-34.724 36.982 1.364 0 0 0
-37.789 39.992 1.461 0 0 0
-33.986 35.745 1.332 0 0 0
-33.959 35.605 1.329 0 0 0
-32.618 33.986 1.281 0 0 0
-34.236 35.225 1.327 0 0 0
-33.794 34.552 1.309 0 0 0
-31.918 32.432 1.245 0 0 0
-34.513 34.846 1.325 0 0 0
-32.71 32.821 1.264 0 0 0
-32.647 32.655 1.26 0 0 0
-32.67 32.474 1.257 0 0 0
-32.855 32.452 1.26 0 0 0
-32.899 32.293 1.258 0 0 0
-32.2 31.409 1.233 0 0 0
-32.281 31.291 1.232 0 0 0
-32.949 31.738 1.25 0 0 0
-33.244 31.921 1.258 0 0 0
-35.505 33.876 1.326 0 0 0
-32.278 30.607 1.221 0 0 0
-32.297 30.433 1.219 0 0 0
-32.455 30.39 1.221 0 0 0
-33.621 31.283 1.254 0 0 0
-33.556 31.027 1.249 0 0 0
-33.412 30.7 1.242 0 0 0
-33.178 30.389 1.233 0 0 0
-32.847 29.898 1.22 0 0 0
-32.656 29.537 1.211 0 0 0
-33.558 30.161 1.236 0 0 0
-32.958 29.435 1.215 0 0 0
-33.188 29.453 1.219 0 0 0
-33.107 29.197 1.214 0 0 0
-33.167 29.157 1.214 0 0 0
-33.737 29.47 1.229 0 0 0
-33.732 29.279 1.226 0 0 0
-33.675 29.045 1.221 0 0 0
-33.886 29.042 1.225 0 0 0
-33.851 28.828 1.221 0 0 0
-33.91 28.695 1.22 0 0 0
-33.413 28.095 1.203 0 0 0
-34.044 28.534 1.22 0 0 0
-34.067 28.372 1.218 0 0 0
-34.033 28.163 1.214 0 0 0
-34.161 28.089 1.216 0 0 0
-37.281 30.455 1.305 0 0 0
-34.423 27.943 1.218 0 0 0
-38.957 31.316 1.347 0 0 0
-38.839 31.021 1.34 0 0 0
-34.985 27.766 1.226 0 0 0
-38.692 30.508 1.331 0 0 0
-38.758 30.363 1.33 0 0 0
-39.54 30.775 1.349 0 0 0
-35.29 27.293 1.224 0 0 0
-35.416 27.302 1.227 0 0 0
-36.714 28.118 1.262 0 0 0
-35.473 26.992 1.224 0 0 0
-35.513 26.847 1.222 0 0 0
-36.043 27.07 1.235 0 0 0
-36.107 26.941 1.234 0 0 0
-36.272 26.887 1.237 0 0 0
-36.375 26.875 1.238 0 0 0
-36.268 26.62 1.233 0 0 0
-35.923 26.194 1.221 0 0 0
-36.656 26.552 1.239 0 0 0
-35.458 25.516 1.203 0 0 0
-35.475 25.359 1.201 0 0 0
-35.548 25.243 1.201 0 0 0
-35.561 25.085 1.199 0 0 0
-35.688 25.09 1.202 0 0 0
-35.71 24.939 1.2 0 0 0
-35.78 24.821 1.2 0 0 0
-36.341 25.04 1.213 0 0 0
-36.172 24.757 1.207 0 0 0
-35.727 24.288 1.192 0 0 0
-35.756 24.145 1.191 0 0 0
-35.922 24.174 1.194 0 0 0
-36.079 24.116 1.197 0 0 0
-38.301 25.425 1.255 0 0 0
-36.257 23.906 1.197 0 0 0
-36.353 23.806 1.198 0 0 0
-36.48 23.726 1.199 0 0 0
-36.774 23.753 1.205 0 0 0
-36.351 23.318 1.192 0 0 0
-36.369 23.249 1.191 0 0 0
-37.293 23.674 1.214 0 0 0
-36.468 22.991 1.19 0 0 0
-36.713 22.985 1.195 0 0 0
-37.256 23.161 1.207 0 0 0
-37.361 23.064 1.208 0 0 0
-37.302 22.866 1.205 0 0 0
-37.302 22.786 1.204 0 0 0
-37.45 22.715 1.206 0 0 0
-37.554 22.617 1.207 0 0 0
-38.093 22.779 1.219 0 0 0
-39.683 23.559 1.259 0 0 0
-39.73 23.418 1.259 0 0 0
-39.428 23.075 1.249 0 0 0
-40.237 23.462 1.269 0 0 0
-37.466 21.692 1.194 0 0 0
-22.138 12.552 0.788 0 0 0
-22.017 12.393 0.784 0 0 0
-22.044 12.317 0.783 0 0 0
-22.042 12.27 0.783 0 0 0
-22.049 12.184 0.782 0 0 0
-22.068 12.104 0.782 0 0 0
-21.839 11.889 0.775 0 0 0
-22.427 12.118 0.789 0 0 0
-38.188 20.458 1.195 0 0 0
-38.074 20.244 1.19 0 0 0
-38.622 20.379 1.203 0 0 0
-38.815 20.403 1.207 0 0 0
-38.558 20.114 1.199 0 0 0
-38.193 19.771 1.188 0 0 0
-38.098 19.571 1.184 0 0 0
-38.011 19.376 1.18 0 0 0
-38.11 19.275 1.181 0 0 0
-38.168 19.155 1.181 0 0 0
-38.017 18.93 1.176 0 0 0
-38.149 18.92 1.178 0 0 0
-38.332 18.861 1.181 0 0 0
-38.993 19.034 1.197 0 0 0
-43.247 20.94 1.303 0 0 0
-46.157 22.168 1.375 0 0 0
-46.21 22.015 1.374 0 0 0
-57.823 27.318 1.665 0 0 0
-57.163 26.678 1.645 0 0 0
-56.842 26.311 1.635 0 0 0
-57.077 26.202 1.639 0 0 0
-38.057 17.048 1.158 0 0 0
-38.197 17.039 1.161 0 0 0
-58.299 25.117 1.654 0 0 0
-57.443 24.536 1.631 0 0 0
-58.22 24.651 1.648 0 0 0
-61.679 26 1.733 0 0 0
-58.398 24.402 1.65 0 0 0
-60.852 24.979 1.706 0 0 0
-57.951 23.577 1.633 0 0 0
-42.464 17.128 1.251 0 0 0
-59.695 23.741 1.671 0 0 0
-59.653 23.507 1.669 0 0 0
-60.043 23.443 1.676 0 0 0
-60.467 23.39 1.685 0 0 0
-60.676 23.252 1.688 0 0 0
-60.835 23.094 1.69 0 0 0
-61.372 23.077 1.702 0 0 0
-63.959 23.478 1.76 0 0 0
-49.323 16.459 1.393 0 0 0
-49.321 16.286 1.391 0 0 0
-49.332 16.118 1.39 0 0 0
-49.327 15.945 1.389 0 0 0
-49.31 15.854 1.388 0 0 0
-49.322 15.687 1.387 0 0 0
-49.3 15.51 1.385 0 0 0
-49.324 15.347 1.385 0 0 0
-49.305 15.172 1.383 0 0 0
-49.312 15.004 1.382 0 0 0
-44.928 13.519 1.277 0 0 0
-44.941 13.446 1.277 0 0 0
-49.358 14.596 1.381 0 0 0
-76.003 22.201 2.012 0 0 0
-76.009 21.944 2.01 0 0 0
-76.018 21.688 2.009 0 0 0
-76.015 21.429 2.007 0 0 0
-76.008 21.17 2.005 0 0 0
-76.021 20.916 2.004 0 0 0
-75.976 20.776 2.002 0 0 0
-75.983 20.521 2.001 0 0 0
-75.985 20.266 1.999 0 0 0
-75.973 20.007 1.998 0 0 0
-75.983 19.755 1.996 0 0 0
-75.979 19.499 1.995 0 0 0
-75.992 19.248 1.994 0 0 0
-75.97 19.116 1.993 0 0 0
-75.957 18.859 1.991 0 0 0
-75.964 18.608 1.99 0 0 0
-75.954 18.353 1.988 0 0 0
-75.959 18.101 1.987 0 0 0
-75.963 17.85 1.986 0 0 0
-75.977 17.602 1.985 0 0 0
-75.978 17.351 1.983 0 0 0
-75.95 17.219 1.982 0 0 0
-75.94 16.966 1.981 0 0 0
-75.948 16.718 1.979 0 0 0
-75.947 16.467 1.978 0 0 0
-75.946 16.217 1.977 0 0 0
-75.939 15.967 1.976 0 0 0
-75.938 15.718 1.975 0 0 0
-75.93 15.592 1.974 0 0 0
-75.925 15.342 1.973 0 0 0
-75.914 15.092 1.971 0 0 0
-75.926 14.847 1.97 0 0 0
-75.925 14.599 1.969 0 0 0
-75.957 14.358 1.969 0 0 0
-75.939 14.107 1.967 0 0 0
-75.921 13.981 1.967 0 0 0
-75.929 13.736 1.966 0 0 0
-74.242 -15.261 1.935 0 0 0
-73.847 -15.421 1.927 0 0 0
-73.57 -15.605 1.921 0 0 0
-73.352 -15.8 1.917 0 0 0
-64.574 -14.331 1.715 0 0 0
-64.563 -14.541 1.716 0 0 0
-64.515 -14.637 1.715 0 0 0
-64.399 -14.823 1.713 0 0 0
-64.539 -15.069 1.718 0 0 0
-63.929 -15.139 1.705 0 0 0
-63.887 -15.341 1.705 0 0 0
-63.947 -15.568 1.707 0 0 0
-63.615 -15.805 1.701 0 0 0
-63.173 -15.906 1.692 0 0 0
-62.784 -16.018 1.684 0 0 0
-63.063 -16.3 1.692 0 0 0
-62.454 -16.352 1.679 0 0 0
-63.262 -16.777 1.699 0 0 0
-63.327 -17.007 1.702 0 0 0
-63.777 -17.343 1.714 0 0 0
-63.769 -17.448 1.714 0 0 0
-62.764 -17.385 1.692 0 0 0
-62.857 -17.624 1.695 0 0 0
-63.096 -17.905 1.702 0 0 0
-62.768 -18.025 1.696 0 0 0
-62.475 -18.153 1.69 0 0 0
-62.822 -18.469 1.7 0 0 0
-62.788 -18.566 1.7 0 0 0
-62.928 -18.823 1.704 0 0 0
-63.272 -19.142 1.714 0 0 0
-63.147 -19.538 1.714 0 0 0
-45.441 -14.602 1.295 0 0 0
-45.121 -14.655 1.289 0 0 0
-45.065 -14.794 1.289 0 0 0
-45.315 -15.034 1.296 0 0 0
-56.68 -19.009 1.57 0 0 0
-56.491 -19.143 1.567 0 0 0
-46.427 -15.891 1.326 0 0 0
-46.396 -15.962 1.326 0 0 0
-46.45 -16.144 1.328 0 0 0
-46.399 -16.289 1.328 0 0 0
-56.801 -20.148 1.581 0 0 0
-56.38 -20.198 1.572 0 0 0
-55.71 -20.156 1.558 0 0 0
-56.364 -20.593 1.575 0 0 0
-55.791 -20.483 1.562 0 0 0
-55.901 -20.723 1.566 0 0 0
-45.452 -17.007 1.314 0 0 0
-45.576 -17.381 1.319 0 0 0
-45.638 -17.569 1.322 0 0 0
-40.705 -15.814 1.203 0 0 0
-68.898 -26.911 1.893 0 0 0
-68.673 -27.072 1.89 0 0 0
-68.98 -27.444 1.899 0 0 0
-36.777 -14.753 1.111 0 0 0
-36.949 -14.957 1.116 0 0 0
-35.936 -14.678 1.092 0 0 0
-37.485 -15.449 1.132 0 0 0
-36.867 -15.33 1.118 0 0 0
-37.079 -15.486 1.123 0 0 0
-35.301 -14.873 1.081 0 0 0
-34.649 -14.726 1.066 0 0 0
-33.752 -14.469 1.045 0 0 0
-33.624 -14.539 1.043 0 0 0
-33.277 -14.514 1.035 0 0 0
-33.056 -14.541 1.031 0 0 0
-32.686 -14.439 1.022 0 0 0
-32.485 -14.472 1.018 0 0 0
-32.277 -14.501 1.014 0 0 0
-31.994 -14.495 1.008 0 0 0
-31.862 -14.556 1.006 0 0 0
-31.54 -14.528 0.999 0 0 0
-31.479 -14.62 0.999 0 0 0
-30.974 -14.504 0.987 0 0 0
-30.84 -14.5 0.984 0 0 0
-30.999 -14.694 0.99 0 0 0
-29.8 -14.24 0.961 0 0 0
-29.694 -14.304 0.959 0 0 0
-29.494 -14.321 0.955 0 0 0
-29.413 -14.396 0.954 0 0 0
-28.877 -14.246 0.942 0 0 0
-28.79 -14.259 0.94 0 0 0
-28.605 -14.28 0.936 0 0 0
-28.409 -14.293 0.933 0 0 0
-28.034 -14.215 0.924 0 0 0
-27.815 -14.214 0.92 0 0 0
-27.459 -14.14 0.912 0 0 0
-27.423 -14.231 0.912 0 0 0
-27.046 -14.089 0.903 0 0 0
-26.814 -14.075 0.898 0 0 0
-26.66 -14.102 0.895 0 0 0
-26.353 -14.045 0.888 0 0 0
-26.177 -14.057 0.885 0 0 0
-26.085 -14.113 0.884 0 0 0
-25.946 -14.143 0.881 0 0 0
-25.803 -14.118 0.878 0 0 0
-25.529 -14.072 0.872 0 0 0
-25.223 -14.006 0.865 0 0 0
-25.06 -14.019 0.862 0 0 0
-24.92 -14.043 0.86 0 0 0
-24.738 -14.044 0.856 0 0 0
-24.548 -14.038 0.852 0 0 0
-24.412 -14.01 0.849 0 0 0
-24.214 -13.998 0.845 0 0 0
-24.014 -13.983 0.841 0 0 0
-23.862 -13.995 0.838 0 0 0
-23.802 -14.06 0.838 0 0 0
-23.615 -14.05 0.834 0 0 0
-23.466 -14.061 0.831 0 0 0
-23.229 -14.018 0.826 0 0 0
-23.043 -13.955 0.822 0 0 0
-23.019 -14.04 0.822 0 0 0
-22.723 -13.957 0.816 0 0 0
-22.625 -13.995 0.814 0 0 0
-22.553 -14.049 0.813 0 0 0
-22.523 -14.128 0.814 0 0 0
-22.245 -14.051 0.808 0 0 0
-22.009 -13.95 0.802 0 0 0
-21.899 -13.977 0.8 0 0 0
-21.808 -14.015 0.799 0 0 0
-21.651 -14.011 0.796 0 0 0
-21.552 -14.043 0.794 0 0 0
-21.423 -14.054 0.792 0 0 0
-21.308 -14.075 0.79 0 0 0
-20.95 -13.885 0.781 0 0 0
-20.956 -13.984 0.782 0 0 0
-20.777 -13.96 0.778 0 0 0
-20.714 -14.011 0.778 0 0 0
-20.605 -14.032 0.776 0 0 0
-20.337 -13.943 0.77 0 0 0
-20.25 -13.977 0.769 0 0 0
-20.134 -13.991 0.767 0 0 0
-20.056 -13.983 0.765 0 0 0
-19.876 -13.951 0.761 0 0 0
-19.798 -13.989 0.76 0 0 0
-19.642 -13.971 0.757 0 0 0
-19.561 -14.006 0.756 0 0 0
-19.405 -13.986 0.753 0 0 0
-19.323 -14.02 0.752 0 0 0
-19.138 -13.931 0.747 0 0 0
-19.031 -13.945 0.746 0 0 0
-18.939 -13.969 0.744 0 0 0
-18.817 -13.97 0.742 0 0 0
-18.683 -13.962 0.739 0 0 0
-18.582 -13.977 0.738 0 0 0
-18.382 -13.917 0.733 0 0 0
-18.263 -13.872 0.731 0 0 0
-18.151 -13.877 0.729 0 0 0
-17.333 -13.337 0.706 0 0 0
-17.236 -13.349 0.705 0 0 0
-17.167 -13.382 0.704 0 0 0
-17.12 -13.432 0.704 0 0 0
-17.12 -13.519 0.705 0 0 0
-17.174 -13.606 0.707 0 0 0
-17.397 -13.872 0.715 0 0 0
-17.292 -13.877 0.713 0 0 0
-17.151 -13.852 0.71 0 0 0
-17.064 -13.871 0.709 0 0 0
-16.817 -13.758 0.703 0 0 0
-16.753 -13.793 0.703 0 0 0
-16.694 -13.833 0.702 0 0 0
-16.572 -13.776 0.699 0 0 0
-16.452 -13.764 0.697 0 0 0
-16.384 -13.795 0.696 0 0 0
-16.204 -13.73 0.692 0 0 0
-16.138 -13.761 0.691 0 0 0
-16.108 -13.823 0.692 0 0 0
-15.871 -13.706 0.686 0 0 0
-15.81 -13.697 0.685 0 0 0
-15.748 -13.73 0.684 0 0 0
-15.673 -13.751 0.683 0 0 0
-15.486 -13.673 0.679 0 0 0
-15.471 -13.747 0.68 0 0 0
-15.34 -13.717 0.677 0 0 0
-15.239 -13.713 0.675 0 0 0
-15.146 -13.672 0.673 0 0 0
-15.12 -13.735 0.674 0 0 0
-15.065 -13.771 0.673 0 0 0
-14.929 -13.733 0.67 0 0 0
-14.8 -13.701 0.668 0 0 0
-14.661 -13.658 0.665 0 0 0
-14.5 -13.593 0.661 0 0 0
-14.342 -13.53 0.657 0 0 0
-14.439 -13.664 0.661 0 0 0
-14.307 -13.625 0.658 0 0 0
-14.309 -13.712 0.66 0 0 0
-14.219 -13.711 0.658 0 0 0
-14.124 -13.706 0.657 0 0 0
-14.035 -13.705 0.655 0 0 0
-13.926 -13.685 0.653 0 0 0
-13.926 -13.728 0.654 0 0 0
-13.87 -13.759 0.653 0 0 0
-13.765 -13.74 0.651 0 0 0
-13.676 -13.738 0.65 0 0 0
-13.614 -13.761 0.649 0 0 0
-13.446 -13.676 0.645 0 0 0
-13.443 -13.76 0.646 0 0 0
-13.339 -13.697 0.644 0 0 0
-13.309 -13.751 0.644 0 0 0
-13.09 -13.61 0.638 0 0 0
-13.03 -13.634 0.638 0 0 0
-12.985 -13.672 0.638 0 0 0
-12.901 -13.669 0.636 0 0 0
-12.857 -13.709 0.636 0 0 0
-12.778 -13.71 0.635 0 0 0
-12.679 -13.646 0.633 0 0 0
-12.504 -13.543 0.628 0 0 0
-12.441 -13.56 0.627 0 0 0
-12.479 -13.688 0.63 0 0 0
-12.482 -13.778 0.632 0 0 0
-12.407 -13.781 0.631 0 0 0
-12.239 -13.681 0.626 0 0 0
-12.161 -13.636 0.624 0 0 0
-12.066 -13.616 0.623 0 0 0
-12.008 -13.636 0.622 0 0 0
-11.845 -13.536 0.618 0 0 0
-11.809 -13.581 0.618 0 0 0
-11.773 -13.626 0.618 0 0 0
-11.7 -13.628 0.617 0 0 0
-11.638 -13.599 0.616 0 0 0
-11.575 -13.611 0.615 0 0 0
-11.56 -13.681 0.616 0 0 0
-11.496 -13.691 0.615 0 0 0
-11.409 -13.675 0.614 0 0 0
-11.257 -13.578 0.61 0 0 0
-11.147 -13.532 0.608 0 0 0
-11.095 -13.512 0.606 0 0 0
-11.075 -13.575 0.607 0 0 0
-11.06 -13.644 0.608 0 0 0
-11.144 -13.836 0.613 0 0 0
-11.063 -13.824 0.612 0 0 0
-11.034 -13.877 0.612 0 0 0
-10.936 -13.843 0.61 0 0 0
-10.787 -13.698 0.605 0 0 0
-10.782 -13.781 0.607 0 0 0
-10.75 -13.829 0.607 0 0 0
-10.711 -13.869 0.607 0 0 0
-10.529 -13.721 0.602 0 0 0
-10.452 -13.71 0.601 0 0 0
-10.372 -13.693 0.6 0 0 0
-10.314 -13.706 0.599 0 0 0
-10.269 -13.69 0.598 0 0 0
-10.2 -13.689 0.597 0 0 0
-10.155 -13.718 0.597 0 0 0
-10.066 -13.687 0.595 0 0 0
-10.005 -13.694 0.595 0 0 0
-9.956 -13.717 0.594 0 0 0
-9.96 -13.813 0.596 0 0 0
-9.955 -13.853 0.597 0 0 0
-9.808 -13.738 0.593 0 0 0
-9.771 -13.779 0.593 0 0 0
-9.751 -13.842 0.594 0 0 0
-9.734 -13.91 0.595 0 0 0
-9.61 -13.826 0.592 0 0 0
-9.55 -13.831 0.591 0 0 0
-9.535 -13.856 0.591 0 0 0
-9.428 -13.793 0.589 0 0 0
-9.389 -13.829 0.589 0 0 0
-9.332 -13.839 0.588 0 0 0
-9.288 -13.867 0.588 0 0 0
-9.234 -13.881 0.588 0 0 0
-9.17 -13.878 0.587 0 0 0
-9.142 -13.932 0.588 0 0 0
-9.074 -13.874 0.586 0 0 0
-9.029 -13.901 0.586 0 0 0
-8.936 -13.853 0.584 0 0 0
-8.912 -13.912 0.585 0 0 0
-8.851 -13.913 0.584 0 0 0
-8.828 -13.973 0.585 0 0 0
-8.77 -13.978 0.584 0 0 0
-8.742 -13.982 0.584 0 0 0
-8.596 -13.844 0.579 0 0 0
-8.571 -13.902 0.58 0 0 0
-8.548 -13.963 0.581 0 0 0
-8.476 -13.943 0.58 0 0 0
-8.456 -14.009 0.581 0 0 0
-8.344 -13.921 0.578 0 0 0
-8.32 -13.93 0.578 0 0 0
-8.286 -13.974 0.578 0 0 0
-8.192 -13.915 0.576 0 0 0
-8.069 -13.804 0.572 0 0 0
-8.014 -13.809 0.572 0 0 0
-8.014 -13.91 0.574 0 0 0
-7.949 -13.897 0.573 0 0 0
-7.967 -13.981 0.575 0 0 0
-7.949 -14.051 0.576 0 0 0
-7.94 -14.139 0.578 0 0 0
-7.862 -14.104 0.576 0 0 0
-7.809 -14.113 0.576 0 0 0
-7.706 -14.031 0.573 0 0 0
-7.636 -14.007 0.572 0 0 0
-7.572 -13.94 0.57 0 0 0
-7.594 -14.087 0.573 0 0 0
-7.537 -14.086 0.572 0 0 0
-7.498 -14.121 0.572 0 0 0
-7.444 -14.126 0.572 0 0 0
-7.304 -13.965 0.567 0 0 0
-7.243 -13.956 0.566 0 0 0
-7.167 -13.917 0.565 0 0 0
-7.148 -13.933 0.565 0 0 0
-7.048 -13.845 0.562 0 0 0
-7.023 -13.903 0.563 0 0 0
-7.035 -14.036 0.566 0 0 0
-7.011 -14.099 0.567 0 0 0
-6.907 -13.999 0.564 0 0 0
-6.856 -14.006 0.563 0 0 0
-6.813 -13.974 0.562 0 0 0
-6.762 -13.981 0.562 0 0 0
-6.697 -13.958 0.561 0 0 0
-6.643 -13.958 0.56 0 0 0
-6.668 -14.125 0.564 0 0 0
-6.598 -14.092 0.563 0 0 0
-6.55 -14.103 0.562 0 0 0
-6.537 -14.133 0.563 0 0 0
-6.418 -13.992 0.559 0 0 0
-6.453 -14.185 0.563 0 0 0
-6.306 -13.977 0.558 0 0 0
-6.24 -13.948 0.556 0 0 0
-6.245 -14.079 0.559 0 0 0
-6.201 -14.098 0.559 0 0 0
-6.155 -14.053 0.558 0 0 0
-6.109 -14.069 0.558 0 0 0
-6.096 -14.161 0.559 0 0 0
-5.994 -14.044 0.556 0 0 0
-5.996 -14.174 0.559 0 0 0
-5.934 -14.15 0.558 0 0 0
-5.808 -13.971 0.553 0 0 0
-5.8 -14.015 0.554 0 0 0
-5.755 -14.03 0.554 0 0 0
-5.701 -14.023 0.553 0 0 0
-5.642 -14.004 0.552 0 0 0
-5.606 -14.042 0.553 0 0 0
-5.554 -14.039 0.552 0 0 0
-5.511 -14.06 0.552 0 0 0
-5.514 -14.199 0.555 0 0 0
-5.439 -14.071 0.552 0 0 0
-5.403 -14.111 0.552 0 0 0
-5.368 -14.15 0.553 0 0 0
-5.355 -14.251 0.555 0 0 0
-5.299 -14.24 0.554 0 0 0
-5.21 -14.134 0.551 0 0 0
-5.179 -14.188 0.552 0 0 0
-5.16 -14.204 0.552 0 0 0
-5.09 -14.15 0.551 0 0 0
-5.034 -14.134 0.55 0 0 0
-4.963 -14.075 0.548 0 0 0
-4.92 -14.094 0.548 0 0 0
-4.871 -14.094 0.548 0 0 0
-4.861 -14.21 0.55 0 0 0
-4.838 -14.215 0.55 0 0 0
-4.813 -14.291 0.552 0 0 0
-4.753 -14.259 0.551 0 0 0
-4.726 -14.329 0.552 0 0 0
-4.648 -14.243 0.549 0 0 0
-4.557 -14.113 0.546 0 0 0
-4.512 -14.125 0.546 0 0 0
-4.484 -14.113 0.546 0 0 0
-4.442 -14.137 0.546 0 0 0
-4.405 -14.173 0.546 0 0 0
-4.37 -14.218 0.547 0 0 0
-4.289 -14.111 0.544 0 0 0
-4.267 -14.201 0.546 0 0 0
-4.236 -14.26 0.547 0 0 0
-4.166 -14.185 0.545 0 0 0
-4.21 -14.42 0.55 0 0 0
-4.094 -14.187 0.545 0 0 0
-4.068 -14.267 0.546 0 0 0
-4.003 -14.207 0.544 0 0 0
-3.946 -14.173 0.543 0 0 0
-3.895 -14.164 0.543 0 0 0
-3.842 -14.146 0.542 0 0 0
-3.827 -14.177 0.543 0 0 0
-3.775 -14.162 0.542 0 0 0
-3.729 -14.168 0.542 0 0 0
-3.679 -14.156 0.541 0 0 0
-3.629 -14.146 0.541 0 0 0
-3.586 -14.163 0.541 0 0 0
-3.545 -14.19 0.541 0 0 0
-3.527 -14.215 0.542 0 0 0
-3.487 -14.242 0.542 0 0 0
-3.437 -14.231 0.542 0 0 0
-3.388 -14.224 0.541 0 0 0
-3.348 -14.256 0.542 0 0 0
-3.313 -14.308 0.543 0 0 0
-3.256 -14.267 0.542 0 0 0
-3.24 -14.3 0.542 0 0 0
-3.183 -14.255 0.541 0 0 0
-3.137 -14.261 0.541 0 0 0
-3.092 -14.271 0.541 0 0 0
-3.049 -14.286 0.541 0 0 0
-3.004 -14.294 0.541 0 0 0
-2.96 -14.309 0.541 0 0 0
-2.896 -14.224 0.539 0 0 0
-2.886 -14.29 0.54 0 0 0
-2.848 -14.334 0.541 0 0 0
-2.792 -14.286 0.54 0 0 0
-2.776 -14.446 0.543 0 0 0
-2.718 -14.388 0.542 0 0 0
-2.662 -14.337 0.54 0 0 0
-2.624 -14.387 0.541 0 0 0
-2.59 -14.328 0.54 0 0 0
-2.535 -14.281 0.539 0 0 0
-2.498 -14.332 0.54 0 0 0
-2.456 -14.356 0.54 0 0 0
-2.418 -14.407 0.541 0 0 0
-2.362 -14.351 0.54 0 0 0
-2.316 -14.352 0.539 0 0 0
-2.291 -14.342 0.539 0 0 0
-2.25 -14.375 0.54 0 0 0
-2.206 -14.386 0.54 0 0 0
-2.151 -14.328 0.538 0 0 0
-2.108 -14.35 0.539 0 0 0
-2.064 -14.365 0.539 0 0 0
-2.02 -14.375 0.539 0 0 0
-1.992 -14.34 0.538 0 0 0
-1.945 -14.335 0.538 0 0 0
-1.897 -14.315 0.537 0 0 0
-1.846 -14.277 0.536 0 0 0
-1.804 -14.301 0.537 0 0 0
-1.756 -14.281 0.536 0 0 0
-1.717 -14.342 0.537 0 0 0
-1.667 -14.305 0.536 0 0 0
-1.646 -14.314 0.536 0 0 0
-1.603 -14.339 0.537 0 0 0
-1.553 -14.296 0.536 0 0 0
-1.512 -14.347 0.537 0 0 0
-1.463 -14.304 0.536 0 0 0
-1.422 -14.352 0.537 0 0 0
-1.373 -14.318 0.536 0 0 0
-1.356 -14.378 0.537 0 0 0
-1.309 -14.365 0.537 0 0 0
-1.262 -14.343 0.536 0 0 0
-1.22 -14.383 0.537 0 0 0
-1.172 -14.348 0.536 0 0 0
-1.128 -14.372 0.537 0 0 0
-1.081 -14.35 0.536 0 0 0
-1.059 -14.365 0.536 0 0 0
-1.014 -14.362 0.536 0 0 0
-0.972 -14.409 0.537 0 0 0
-0.93 -14.476 0.539 0 0 0
-0.882 -14.427 0.537 0 0 0
-0.835 -14.406 0.537 0 0 0
-0.79 -14.409 0.537 0 0 0
-0.767 -14.408 0.537 0 0 0
-0.723 -14.436 0.537 0 0 0
-0.674 -14.364 0.536 0 0 0
-0.631 -14.396 0.536 0 0 0
-0.586 -14.424 0.537 0 0 0
-0.544 -14.516 0.539 0 0 0
-0.496 -14.44 0.537 0 0 0
-0.472 -14.406 0.537 0 0 0
-0.427 -14.414 0.537 0 0 0
-0.384 -14.503 0.539 0 0 0
-0.338 -14.484 0.538 0 0 0
-0.292 -14.465 0.538 0 0 0
-0.247 -14.49 0.538 0 0 0
-0.201 -14.425 0.537 0 0 0
-0.179 -14.485 0.538 0 0 0
-0.133 -14.456 0.538 0 0 0
-0.088 -14.468 0.538 0 0 0
-0.042 -14.47 0.538 0 0 0
0.003 -14.514 0.539 0 0 0
0.049 -14.506 0.539 0 0 0
0.095 -14.61 0.541 0 0 0
0.14 -14.501 0.539 0 0 0
0.162 -14.491 0.538 0 0 0
0.207 -14.449 0.537 0 0 0
0.253 -14.484 0.538 0 0 0
0.299 -14.467 0.538 0 0 0
0.345 -14.496 0.539 0 0 0
0.389 -14.449 0.537 0 0 0
0.437 -14.522 0.539 0 0 0
0.458 -14.479 0.538 0 0 0
0.503 -14.473 0.538 0 0 0
0.55 -14.506 0.539 0 0 0
0.597 -14.534 0.54 0 0 0
0.643 -14.54 0.54 0 0 0
0.689 -14.544 0.54 0 0 0
0.736 -14.556 0.54 0 0 0
0.758 -14.546 0.54 0 0 0
0.801 -14.502 0.539 0 0 0
0.851 -14.565 0.541 0 0 0
0.897 -14.569 0.541 0 0 0
0.942 -14.556 0.54 0 0 0
1.001 -14.74 0.545 0 0 0
1.038 -14.613 0.542 0 0 0
1.059 -14.582 0.541 0 0 0
1.107 -14.612 0.542 0 0 0
1.152 -14.599 0.542 0 0 0
1.198 -14.597 0.542 0 0 0
1.237 -14.506 0.54 0 0 0
1.281 -14.486 0.539 0 0 0
1.33 -14.521 0.54 0 0 0
1.364 -14.635 0.543 0 0 0
1.406 -14.597 0.542 0 0 0
1.448 -14.552 0.541 0 0 0
1.498 -14.583 0.542 0 0 0
1.547 -14.614 0.543 0 0 0
1.595 -14.627 0.543 0 0 0
1.646 -14.666 0.544 0 0 0
1.696 -14.693 0.545 0 0 0
1.707 -14.585 0.543 0 0 0
1.75 -14.563 0.542 0 0 0
1.812 -14.687 0.545 0 0 0
1.852 -14.633 0.544 0 0 0
1.898 -14.627 0.544 0 0 0
1.954 -14.695 0.546 0 0 0
2.002 -14.7 0.546 0 0 0
2.014 -14.622 0.544 0 0 0
2.059 -14.608 0.544 0 0 0
2.108 -14.621 0.545 0 0 0
2.168 -14.705 0.547 0 0 0
2.228 -14.795 0.549 0 0 0
2.277 -14.804 0.549 0 0 0
2.295 -14.617 0.545 0 0 0
2.318 -14.613 0.545 0 0 0
2.365 -14.61 0.545 0 0 0
2.417 -14.638 0.546 0 0 0
2.472 -14.683 0.547 0 0 0
2.504 -14.597 0.546 0 0 0
2.547 -14.573 0.545 0 0 0
2.641 -14.835 0.551 0 0 0
2.61 -14.53 0.544 0 0 0
2.66 -14.545 0.545 0 0 0
2.697 -14.487 0.544 0 0 0
2.744 -14.491 0.544 0 0 0
2.783 -14.445 0.543 0 0 0
2.828 -14.438 0.543 0 0 0
2.874 -14.429 0.543 0 0 0
2.945 -14.549 0.546 0 0 0
2.968 -14.544 0.546 0 0 0
3.011 -14.519 0.546 0 0 0
3.06 -14.525 0.546 0 0 0
3.112 -14.549 0.547 0 0 0
3.156 -14.531 0.547 0 0 0
3.214 -14.576 0.548 0 0 0
3.274 -14.63 0.55 0 0 0
3.279 -14.545 0.548 0 0 0
3.351 -14.646 0.55 0 0 0
3.378 -14.555 0.549 0 0 0
3.437 -14.599 0.55 0 0 0
3.472 -14.545 0.549 0 0 0
3.535 -14.604 0.551 0 0 0
3.582 -14.597 0.551 0 0 0
3.616 -14.636 0.552 0 0 0
3.648 -14.57 0.55 0 0 0
3.705 -14.601 0.551 0 0 0
3.736 -14.534 0.55 0 0 0
3.804 -14.607 0.552 0 0 0
3.848 -14.589 0.552 0 0 0
3.89 -14.561 0.552 0 0 0
3.917 -14.573 0.552 0 0 0
3.975 -14.605 0.553 0 0 0
4.031 -14.627 0.554 0 0 0
4.084 -14.639 0.554 0 0 0
4.161 -14.736 0.557 0 0 0
4.198 -14.69 0.556 0 0 0
4.233 -14.638 0.555 0 0 0
4.284 -14.729 0.558 0 0 0
4.35 -14.783 0.559 0 0 0
4.364 -14.66 0.557 0 0 0
4.426 -14.7 0.558 0 0 0
4.462 -14.652 0.557 0 0 0
4.515 -14.658 0.558 0 0 0
4.564 -14.654 0.558 0 0 0
4.623 -14.681 0.559 0 0 0
4.665 -14.735 0.56 0 0 0
4.711 -14.718 0.56 0 0 0
4.746 -14.667 0.559 0 0 0
4.795 -14.662 0.56 0 0 0
4.869 -14.732 0.562 0 0 0
4.935 -14.775 0.563 0 0 0
5.032 -14.986 0.568 0 0 0
5.1 -15.03 0.57 0 0 0
5.09 -14.85 0.566 0 0 0
5.143 -14.853 0.566 0 0 0
5.173 -14.787 0.565 0 0 0
5.231 -14.805 0.566 0 0 0
5.282 -14.802 0.566 0 0 0
5.358 -14.866 0.568 0 0 0
5.37 -14.825 0.567 0 0 0
5.416 -14.808 0.567 0 0 0
5.475 -14.825 0.568 0 0 0
5.525 -14.815 0.568 0 0 0
5.568 -14.79 0.568 0 0 0
5.642 -14.844 0.57 0 0 0
5.679 -14.802 0.569 0 0 0
5.708 -14.808 0.57 0 0 0
5.78 -14.855 0.571 0 0 0
5.86 -14.92 0.573 0 0 0
5.919 -14.933 0.574 0 0 0
5.992 -14.978 0.576 0 0 0
6.005 -14.876 0.574 0 0 0
6.113 -15.006 0.577 0 0 0
6.1 -14.908 0.575 0 0 0
6.157 -14.915 0.576 0 0 0
6.207 -14.901 0.576 0 0 0
6.263 -14.905 0.577 0 0 0
6.313 -14.893 0.577 0 0 0
6.376 -14.91 0.578 0 0 0
6.411 -14.862 0.577 0 0 0
6.444 -14.874 0.577 0 0 0
6.502 -14.881 0.578 0 0 0
6.576 -14.921 0.58 0 0 0
6.637 -14.933 0.58 0 0 0
6.729 -15.011 0.583 0 0 0
6.748 -14.929 0.581 0 0 0
6.824 -14.972 0.583 0 0 0
6.849 -14.963 0.583 0 0 0
6.899 -14.948 0.583 0 0 0
6.943 -14.919 0.583 0 0 0
7.009 -14.939 0.584 0 0 0
7.066 -14.939 0.585 0 0 0
7.113 -14.916 0.585 0 0 0
7.172 -14.919 0.585 0 0 0
7.238 -14.936 0.586 0 0 0
7.315 -15.034 0.589 0 0 0
7.351 -14.988 0.588 0 0 0
7.433 -15.035 0.59 0 0 0
7.503 -15.058 0.591 0 0 0
7.511 -14.956 0.589 0 0 0
7.55 -14.916 0.589 0 0 0
7.655 -15.006 0.592 0 0 0
7.676 -14.99 0.592 0 0 0
7.733 -14.984 0.592 0 0 0
7.786 -14.972 0.593 0 0 0
7.875 -15.027 0.595 0 0 0
7.905 -14.969 0.594 0 0 0
7.947 -14.935 0.594 0 0 0
8.043 -15.001 0.596 0 0 0
8.056 -14.969 0.595 0 0 0
8.103 -14.944 0.595 0 0 0
8.17 -14.955 0.596 0 0 0
8.216 -14.928 0.596 0 0 0
8.417 -15.178 0.604 0 0 0
8.379 -15 0.6 0 0 0
8.426 -14.973 0.6 0 0 0
8.447 -14.955 0.599 0 0 0
8.564 -15.052 0.603 0 0 0
8.61 -15.023 0.603 0 0 0
8.694 -15.058 0.604 0 0 0
8.726 -15.005 0.604 0 0 0
8.803 -15.029 0.605 0 0 0
8.861 -15.018 0.605 0 0 0
8.923 -15.07 0.607 0 0 0
9.038 -15.155 0.61 0 0 0
9.111 -15.169 0.611 0 0 0
9.146 -15.118 0.611 0 0 0
9.196 -15.095 0.611 0 0 0
9.304 -15.164 0.613 0 0 0
9.349 -15.13 0.613 0 0 0
9.413 -15.128 0.614 0 0 0
9.424 -15.093 0.614 0 0 0
9.488 -15.088 0.614 0 0 0
9.571 -15.116 0.616 0 0 0
9.681 -15.183 0.618 0 0 0
9.731 -15.156 0.618 0 0 0
9.784 -15.134 0.619 0 0 0
9.824 -15.091 0.618 0 0 0
9.854 -15.086 0.619 0 0 0
9.933 -15.103 0.62 0 0 0
9.979 -15.069 0.62 0 0 0
10.039 -15.057 0.62 0 0 0
10.149 -15.119 0.623 0 0 0
10.23 -15.136 0.624 0 0 0
10.29 -15.122 0.625 0 0 0
10.383 -15.207 0.628 0 0 0
10.482 -15.248 0.63 0 0 0
10.557 -15.254 0.631 0 0 0
10.591 -15.202 0.63 0 0 0
10.636 -15.165 0.63 0 0 0
10.774 -15.259 0.634 0 0 0
10.831 -15.238 0.634 0 0 0
10.714 -15.024 0.629 0 0 0
10.742 -14.963 0.628 0 0 0
10.786 -14.926 0.628 0 0 0
10.85 -14.914 0.628 0 0 0
10.912 -14.901 0.629 0 0 0
11.401 -15.465 0.646 0 0 0
11.452 -15.432 0.646 0 0 0
11.47 -15.406 0.646 0 0 0
11.524 -15.378 0.646 0 0 0
11.612 -15.394 0.647 0 0 0
11.727 -15.445 0.65 0 0 0
11.866 -15.526 0.653 0 0 0
12.019 -15.625 0.657 0 0 0
12.087 -15.61 0.658 0 0 0
12.202 -15.658 0.66 0 0 0
12.286 -15.714 0.663 0 0 0
12.361 -15.708 0.664 0 0 0
12.418 -15.679 0.664 0 0 0
12.532 -15.721 0.666 0 0 0
12.534 -15.622 0.664 0 0 0
12.46 -15.43 0.66 0 0 0
12.603 -15.507 0.663 0 0 0
12.847 -15.757 0.671 0 0 0
12.921 -15.746 0.672 0 0 0
12.796 -15.494 0.666 0 0 0
13.095 -15.755 0.675 0 0 0
13.179 -15.755 0.676 0 0 0
13.189 -15.666 0.675 0 0 0
13.356 -15.763 0.679 0 0 0
13.418 -15.787 0.68 0 0 0
13.51 -15.794 0.682 0 0 0
13.414 -15.582 0.677 0 0 0
13.536 -15.625 0.679 0 0 0
13.559 -15.552 0.678 0 0 0
13.717 -15.634 0.682 0 0 0
13.949 -15.797 0.688 0 0 0
14.036 -15.846 0.69 0 0 0
14.133 -15.854 0.692 0 0 0
14.213 -15.843 0.693 0 0 0
14.201 -15.73 0.691 0 0 0
14.306 -15.746 0.693 0 0 0
14.397 -15.747 0.694 0 0 0
14.591 -15.859 0.699 0 0 0
14.57 -15.786 0.698 0 0 0
14.541 -15.655 0.695 0 0 0
14.631 -15.653 0.696 0 0 0
14.876 -15.815 0.703 0 0 0
14.942 -15.786 0.703 0 0 0
15.055 -15.806 0.705 0 0 0
15.182 -15.839 0.708 0 0 0
15.271 -15.881 0.71 0 0 0
15.31 -15.822 0.71 0 0 0
15.358 -15.772 0.71 0 0 0
15.414 -15.731 0.71 0 0 0
15.739 -15.961 0.719 0 0 0
15.832 -15.954 0.72 0 0 0
15.852 -15.875 0.719 0 0 0
15.887 -15.86 0.72 0 0 0
16.003 -15.876 0.722 0 0 0
16.094 -15.866 0.723 0 0 0
16.254 -15.923 0.727 0 0 0
16.418 -15.982 0.73 0 0 0
16.465 -15.928 0.73 0 0 0
16.506 -15.867 0.73 0 0 0
16.583 -15.891 0.731 0 0 0
16.849 -16.044 0.738 0 0 0
16.924 -16.015 0.739 0 0 0
17.013 -15.998 0.74 0 0 0
17.182 -16.055 0.744 0 0 0
17.307 -16.07 0.746 0 0 0
17.35 -16.009 0.746 0 0 0
17.424 -15.976 0.747 0 0 0
17.52 -16.014 0.749 0 0 0
17.701 -16.077 0.753 0 0 0
10.848 -9.804 0.541 0 0 0
10.836 -9.732 0.54 0 0 0
10.859 -9.691 0.54 0 0 0
10.906 -9.671 0.54 0 0 0
10.945 -9.645 0.541 0 0 0
10.918 -9.591 0.539 0 0 0
10.963 -9.57 0.54 0 0 0
11.035 -9.572 0.541 0 0 0
11.072 -9.542 0.541 0 0 0
10.997 -9.418 0.538 0 0 0
18.755 -15.937 0.769 0 0 0
18.952 -16.001 0.773 0 0 0
19.265 -16.213 0.782 0 0 0
19.385 -16.21 0.784 0 0 0
19.456 -16.166 0.784 0 0 0
19.46 -16.067 0.783 0 0 0
11.501 -9.448 0.547 0 0 0
19.432 -15.839 0.779 0 0 0
19.495 -15.789 0.78 0 0 0
19.909 -16.072 0.791 0 0 0
20.018 -16.056 0.793 0 0 0
20.275 -16.157 0.799 0 0 0
13.096 -10.381 0.589 0 0 0
13.105 -10.322 0.588 0 0 0
13.278 -10.39 0.592 0 0 0
13.266 -10.314 0.591 0 0 0
13.205 -10.233 0.589 0 0 0
13.299 -10.239 0.591 0 0 0
13.456 -10.293 0.594 0 0 0
21.239 -16.122 0.816 0 0 0
21.106 -15.917 0.81 0 0 0
21.609 -16.189 0.823 0 0 0
13.019 -9.64 0.577 0 0 0
13.036 -9.62 0.577 0 0 0
13.102 -9.605 0.578 0 0 0
13.208 -9.619 0.58 0 0 0
13.49 -9.759 0.587 0 0 0
13.506 -9.706 0.587 0 0 0
13.595 -9.706 0.589 0 0 0
13.553 -9.612 0.587 0 0 0
13.549 -9.577 0.586 0 0 0
13.548 -9.512 0.585 0 0 0
13.568 -9.463 0.585 0 0 0
13.628 -9.442 0.586 0 0 0
13.711 -9.435 0.587 0 0 0
14.026 -9.587 0.595 0 0 0
14.041 -9.533 0.595 0 0 0
13.723 -9.286 0.586 0 0 0
13.963 -9.384 0.591 0 0 0
14.126 -9.429 0.595 0 0 0
14.16 -9.388 0.595 0 0 0
14.166 -9.328 0.595 0 0 0
25.06 -16.364 0.89 0 0 0
25.15 -16.311 0.891 0 0 0
25.314 -16.36 0.895 0 0 0
25.702 -16.496 0.904 0 0 0
25.721 -16.395 0.903 0 0 0
25.79 -16.325 0.903 0 0 0
25.941 -16.306 0.906 0 0 0
26.234 -16.376 0.913 0 0 0
26.364 -16.342 0.915 0 0 0
26.592 -16.425 0.92 0 0 0
26.86 -16.474 0.926 0 0 0
27.043 -16.47 0.929 0 0 0
27.206 -16.452 0.932 0 0 0
27.332 -16.41 0.934 0 0 0
27.627 -16.47 0.941 0 0 0
27.961 -16.55 0.948 0 0 0
28.178 -16.618 0.953 0 0 0
28.375 -16.614 0.957 0 0 0
28.73 -16.701 0.965 0 0 0
17.806 -10.288 0.677 0 0 0
17.724 -10.166 0.674 0 0 0
29.594 -16.831 0.984 0 0 0
29.868 -16.863 0.989 0 0 0
30.126 -16.884 0.995 0 0 0
30.303 -16.92 0.999 0 0 0
30.487 -16.898 1.002 0 0 0
30.74 -16.911 1.007 0 0 0
30.944 -16.897 1.011 0 0 0
31.224 -16.923 1.017 0 0 0
31.446 -16.915 1.022 0 0 0
31.642 -16.893 1.025 0 0 0
31.946 -16.99 1.032 0 0 0
32.154 -16.972 1.036 0 0 0
18.444 -9.673 0.683 0 0 0
18.504 -9.631 0.683 0 0 0
18.829 -9.725 0.691 0 0 0
18.883 -9.677 0.692 0 0 0
19.028 -9.639 0.694 0 0 0
19.059 -9.579 0.694 0 0 0
19.499 -9.723 0.705 0 0 0
19.579 -9.686 0.706 0 0 0
19.619 -9.629 0.706 0 0 0
35.17 -17.103 1.099 0 0 0
35.452 -17.102 1.105 0 0 0
35.713 -17.159 1.111 0 0 0
36.069 -17.19 1.118 0 0 0
36.33 -17.175 1.124 0 0 0
36.698 -17.207 1.131 0 0 0
36.969 -17.193 1.137 0 0 0
37.521 -17.306 1.149 0 0 0
37.729 -17.258 1.153 0 0 0
38.009 -17.314 1.16 0 0 0
38.763 -17.51 1.177 0 0 0
39.087 -17.508 1.184 0 0 0
39.384 -17.493 1.19 0 0 0
40.065 -17.645 1.205 0 0 0
40.531 -17.698 1.216 0 0 0
40.816 -17.67 1.221 0 0 0
40.917 -17.637 1.223 0 0 0
41.364 -17.676 1.233 0 0 0
41.918 -17.757 1.245 0 0 0
42.389 -17.799 1.255 0 0 0
42.675 -17.761 1.261 0 0 0
43.034 -17.752 1.269 0 0 0
43.615 -17.831 1.281 0 0 0
44.112 -17.873 1.292 0 0 0
44.769 -18.057 1.308 0 0 0
45.388 -18.141 1.322 0 0 0
45.863 -18.163 1.332 0 0 0
46.216 -18.135 1.339 0 0 0
46.851 -18.214 1.353 0 0 0
47.154 -18.162 1.359 0 0 0
47.693 -18.197 1.371 0 0 0
48.219 -18.311 1.383 0 0 0
48.641 -18.296 1.392 0 0 0
51.896 -19.332 1.47 0 0 0
52.119 -19.229 1.474 0 0 0
52.198 -19.072 1.474 0 0 0
52.416 -18.966 1.478 0 0 0
52.68 -18.874 1.483 0 0 0
53.186 -18.867 1.494 0 0 0
53.532 -18.895 1.501 0 0 0
53.454 -18.678 1.498 0 0 0
56.631 -19.588 1.573 0 0 0
56.501 -19.344 1.568 0 0 0
56.639 -19.193 1.57 0 0 0
57.175 -19.174 1.582 0 0 0
57.857 -19.302 1.597 0 0 0
58.596 -19.343 1.614 0 0 0
58.977 -19.264 1.621 0 0 0
59.401 -19.196 1.63 0 0 0
40.067 -12.818 1.166 0 0 0
62.123 -19.644 1.692 0 0 0
39.41 -12.336 1.149 0 0 0
39.443 -12.21 1.149 0 0 0
40.423 -12.443 1.172 0 0 0
38.649 -11.633 1.128 0 0 0
40.376 -12.014 1.168 0 0 0
39.076 -11.494 1.136 0 0 0
44.652 -12.978 1.267 0 0 0
44.018 -12.645 1.251 0 0 0
38.98 -11.134 1.132 0 0 0
76.321 -21.515 2.014 0 0 0
46.65 -12.374 1.308 0 0 0
47.305 -11.992 1.32 0 0 0
47.364 -11.849 1.32 0 0 0
47.484 -11.721 1.322 0 0 0
73.125 9.086 1.329 0 0 0
73.172 9.209 1.33 0 0 0
73.276 9.456 1.332 0 0 0
67.81 10.382 1.251 0 0 0
67.219 10.508 1.243 0 0 0
66.521 10.613 1.232 0 0 0
66.339 10.798 1.23 0 0 0
66.38 11.019 1.231 0 0 0
66.404 11.238 1.232 0 0 0
66.447 11.352 1.233 0 0 0
66.476 11.572 1.234 0 0 0
66.491 11.79 1.235 0 0 0
66.526 12.012 1.236 0 0 0
62.194 11.433 1.17 0 0 0
65.859 13.286 1.23 0 0 0
57.622 11.816 1.103 0 0 0
57.113 11.899 1.095 0 0 0
56.617 11.981 1.088 0 0 0
56.16 11.977 1.081 0 0 0
55.643 12.05 1.074 0 0 0
55.258 12.149 1.068 0 0 0
55.252 12.329 1.069 0 0 0
55.27 12.516 1.07 0 0 0
55.291 12.703 1.071 0 0 0
55.309 12.89 1.072 0 0 0
55.363 12.995 1.073 0 0 0
55.384 13.183 1.074 0 0 0
55.406 13.373 1.075 0 0 0
55.428 13.562 1.076 0 0 0
51.043 12.661 1.008 0 0 0
55.483 13.946 1.078 0 0 0
55.501 14.136 1.079 0 0 0
55.553 14.242 1.08 0 0 0
55.556 14.429 1.081 0 0 0
46.464 12.228 0.939 0 0 0
55.17 14.699 1.076 0 0 0
54.776 14.779 1.071 0 0 0
54.435 14.871 1.066 0 0 0
53.91 14.91 1.059 0 0 0
53.543 14.99 1.054 0 0 0
53.205 14.985 1.049 0 0 0
44.26 12.621 0.908 0 0 0
46.265 13.348 0.94 0 0 0
45.91 13.403 0.935 0 0 0
45.503 13.439 0.929 0 0 0
45.238 13.516 0.926 0 0 0
44.92 13.498 0.921 0 0 0
44.524 13.532 0.916 0 0 0
44.28 13.61 0.912 0 0 0
44.124 13.714 0.911 0 0 0
44.148 13.873 0.912 0 0 0
44.14 14.024 0.912 0 0 0
44.174 14.187 0.914 0 0 0
44.207 14.274 0.914 0 0 0
44.244 14.44 0.916 0 0 0
44.253 14.597 0.917 0 0 0
40.759 13.589 0.861 0 0 0
40.703 13.712 0.861 0 0 0
44.301 15.077 0.92 0 0 0
44.358 15.252 0.921 0 0 0
44.262 15.375 0.921 0 0 0
44.38 15.493 0.923 0 0 0
44.404 15.659 0.924 0 0 0
44.426 15.824 0.925 0 0 0
44.446 15.988 0.926 0 0 0
44.354 16.113 0.926 0 0 0
44.193 16.211 0.924 0 0 0
43.894 16.259 0.92 0 0 0
43.636 16.241 0.916 0 0 0
43.341 16.287 0.912 0 0 0
43.062 16.336 0.908 0 0 0
42.788 16.387 0.905 0 0 0
42.509 16.433 0.901 0 0 0
42.216 16.473 0.897 0 0 0
41.947 16.52 0.894 0 0 0
41.694 16.496 0.89 0 0 0
41.443 16.548 0.887 0 0 0
41.17 16.589 0.883 0 0 0
40.921 16.639 0.88 0 0 0
40.656 16.68 0.876 0 0 0
38.515 15.945 0.842 0 0 0
38.337 16.012 0.84 0 0 0
33.673 14.13 0.763 0 0 0
33.559 14.206 0.762 0 0 0
38.056 16.247 0.837 0 0 0
37.856 16.303 0.835 0 0 0
37.606 16.336 0.831 0 0 0
37.379 16.377 0.829 0 0 0
37.141 16.412 0.825 0 0 0
36.947 16.396 0.823 0 0 0
36.723 16.435 0.82 0 0 0
36.487 16.467 0.817 0 0 0
36.264 16.504 0.814 0 0 0
36.038 16.538 0.811 0 0 0
35.848 16.587 0.809 0 0 0
35.668 16.641 0.806 0 0 0
29.614 13.877 0.705 0 0 0
29.539 13.956 0.705 0 0 0
29.108 13.977 0.699 0 0 0
28.967 14.021 0.697 0 0 0
28.405 14.082 0.69 0 0 0
28.483 14.176 0.692 0 0 0
27.887 14.099 0.683 0 0 0
27.865 14.198 0.683 0 0 0
27.635 14.301 0.681 0 0 0
27.297 14.235 0.676 0 0 0
26.785 14.237 0.669 0 0 0
26.712 14.306 0.669 0 0 0
26.688 14.402 0.669 0 0 0
26.868 14.607 0.673 0 0 0
27.062 14.823 0.677 0 0 0
26.99 14.839 0.676 0 0 0
26.789 14.838 0.674 0 0 0
26.781 14.944 0.674 0 0 0
26.786 15.057 0.675 0 0 0
26.807 15.18 0.676 0 0 0
26.823 15.3 0.677 0 0 0
26.832 15.417 0.678 0 0 0
26.846 15.538 0.68 0 0 0
26.889 15.619 0.681 0 0 0
26.905 15.742 0.682 0 0 0
26.92 15.864 0.683 0 0 0
26.938 15.989 0.684 0 0 0
26.943 16.106 0.685 0 0 0
29.887 17.99 0.738 0 0 0
29.901 18.063 0.739 0 0 0
29.944 18.217 0.741 0 0 0
27.237 16.691 0.694 0 0 0
27.084 16.714 0.692 0 0 0
27.053 16.813 0.692 0 0 0
27.063 16.937 0.693 0 0 0
27.099 17.078 0.695 0 0 0
26.976 17.12 0.694 0 0 0
27.091 17.252 0.696 0 0 0
26.965 17.291 0.695 0 0 0
26.715 17.25 0.691 0 0 0
26.612 17.302 0.691 0 0 0
26.501 17.348 0.69 0 0 0
26.741 17.746 0.696 0 0 0
22.325 14.871 0.616 0 0 0
22.263 14.931 0.615 0 0 0
26.404 17.823 0.692 0 0 0
26.238 17.832 0.69 0 0 0
26.113 17.867 0.689 0 0 0
25.984 17.899 0.688 0 0 0
25.836 17.916 0.686 0 0 0
25.724 17.899 0.684 0 0 0
25.594 17.928 0.683 0 0 0
25.447 17.945 0.681 0 0 0
25.312 17.969 0.68 0 0 0
25.181 17.995 0.679 0 0 0
25.04 18.014 0.677 0 0 0
24.9 18.033 0.675 0 0 0
24.777 18.062 0.674 0 0 0
24.671 18.045 0.673 0 0 0
24.539 18.066 0.671 0 0 0
24.415 18.094 0.67 0 0 0
24.277 18.11 0.668 0 0 0
24.152 18.135 0.667 0 0 0
24.019 18.154 0.666 0 0 0
23.884 18.17 0.664 0 0 0
23.797 18.163 0.663 0 0 0
23.663 18.179 0.662 0 0 0
23.54 18.202 0.66 0 0 0
23.421 18.228 0.659 0 0 0
23.296 18.249 0.658 0 0 0
23.168 18.266 0.657 0 0 0
23.06 18.299 0.656 0 0 0
22.843 18.186 0.652 0 0 0
22.82 18.285 0.653 0 0 0
22.711 18.315 0.652 0 0 0
22.595 18.339 0.65 0 0 0
22.469 18.354 0.649 0 0 0
22.354 18.378 0.648 0 0 0
22.236 18.398 0.647 0 0 0
22.144 18.381 0.645 0 0 0
22.031 18.404 0.644 0 0 0
21.913 18.423 0.643 0 0 0
21.809 18.453 0.642 0 0 0
21.722 18.497 0.642 0 0 0
17.974 15.409 0.568 0 0 0
17.883 15.429 0.567 0 0 0
17.8 15.406 0.566 0 0 0
17.721 15.436 0.565 0 0 0
17.623 15.448 0.564 0 0 0
17.51 15.446 0.563 0 0 0
17.446 15.488 0.563 0 0 0
17.366 15.515 0.562 0 0 0
17.344 15.593 0.563 0 0 0
17.17 15.535 0.56 0 0 0
17.162 15.577 0.56 0 0 0
17.014 15.54 0.558 0 0 0
16.923 15.554 0.557 0 0 0
16.944 15.673 0.559 0 0 0
16.967 15.792 0.56 0 0 0
16.692 15.635 0.556 0 0 0
16.697 15.738 0.557 0 0 0
16.685 15.777 0.557 0 0 0
16.384 15.591 0.552 0 0 0
16.455 15.757 0.554 0 0 0
16.433 15.835 0.555 0 0 0
16.368 15.871 0.555 0 0 0
16.19 15.799 0.552 0 0 0
16.359 16.064 0.556 0 0 0
15.949 15.711 0.548 0 0 0
15.831 15.693 0.547 0 0 0
16.144 16.104 0.555 0 0 0
16.063 16.124 0.554 0 0 0
15.823 15.984 0.55 0 0 0
15.771 16.032 0.55 0 0 0
15.771 16.133 0.551 0 0 0
15.752 16.368 0.553 0 0 0
15.669 16.385 0.553 0 0 0
15.535 16.347 0.551 0 0 0
15.494 16.407 0.551 0 0 0
15.359 16.367 0.549 0 0 0
15.298 16.405 0.549 0 0 0
15.336 16.498 0.55 0 0 0
12.978 14.054 0.499 0 0 0
12.904 14.063 0.498 0 0 0
12.832 14.074 0.497 0 0 0
12.773 14.097 0.497 0 0 0
12.702 14.108 0.496 0 0 0
12.735 14.234 0.498 0 0 0
12.654 14.188 0.497 0 0 0
12.625 14.246 0.497 0 0 0
12.594 14.301 0.498 0 0 0
12.633 14.436 0.5 0 0 0
12.598 14.488 0.5 0 0 0
12.562 14.538 0.5 0 0 0
15.641 18.265 0.574 0 0 0
15.612 18.348 0.574 0 0 0
15.62 18.474 0.576 0 0 0
15.649 18.626 0.578 0 0 0
15.631 18.724 0.579 0 0 0
15.644 18.859 0.58 0 0 0
15.605 18.933 0.581 0 0 0
15.637 19.093 0.583 0 0 0
15.595 19.104 0.583 0 0 0
15.499 19.108 0.582 0 0 0
15.181 18.837 0.576 0 0 0
15.154 18.925 0.577 0 0 0
15.333 19.271 0.582 0 0 0
15.236 19.274 0.581 0 0 0
15.177 19.323 0.581 0 0 0
15.052 19.352 0.581 0 0 0
14.911 19.295 0.579 0 0 0
14.852 19.345 0.579 0 0 0
14.79 19.39 0.579 0 0 0
14.698 19.395 0.578 0 0 0
14.625 19.425 0.578 0 0 0
14.541 19.44 0.577 0 0 0
14.482 19.425 0.576 0 0 0
14.4 19.443 0.576 0 0 0
14.32 19.462 0.575 0 0 0
14.235 19.475 0.575 0 0 0
11.227 15.471 0.498 0 0 0
11.158 15.477 0.498 0 0 0
11.106 15.507 0.498 0 0 0
11.101 15.552 0.498 0 0 0
13.847 19.518 0.572 0 0 0
13.764 19.53 0.571 0 0 0
13.684 19.547 0.571 0 0 0
13.601 19.559 0.57 0 0 0
13.519 19.572 0.57 0 0 0
13.436 19.583 0.569 0 0 0
13.383 19.571 0.568 0 0 0
13.304 19.588 0.568 0 0 0
13.221 19.598 0.567 0 0 0
13.142 19.613 0.567 0 0 0
13.065 19.631 0.566 0 0 0
12.982 19.64 0.566 0 0 0
12.907 19.661 0.565 0 0 0
12.822 19.666 0.565 0 0 0
12.778 19.666 0.564 0 0 0
12.693 19.671 0.564 0 0 0
12.617 19.689 0.563 0 0 0
12.539 19.703 0.563 0 0 0
12.461 19.717 0.563 0 0 0
12.381 19.728 0.562 0 0 0
12.299 19.734 0.561 0 0 0
12.251 19.726 0.561 0 0 0
12.178 19.746 0.561 0 0 0
12.121 19.793 0.561 0 0 0
10.031 16.504 0.502 0 0 0
11.944 19.783 0.559 0 0 0
11.819 19.716 0.557 0 0 0
11.791 19.809 0.558 0 0 0
11.743 19.799 0.558 0 0 0
11.667 19.813 0.557 0 0 0
11.591 19.826 0.557 0 0 0
11.517 19.843 0.557 0 0 0
11.443 19.858 0.556 0 0 0
11.365 19.866 0.556 0 0 0
11.286 19.874 0.555 0 0 0
11.241 19.867 0.555 0 0 0
11.171 19.889 0.555 0 0 0
11.093 19.896 0.554 0 0 0
11.02 19.913 0.554 0 0 0
10.937 19.909 0.553 0 0 0
10.869 19.934 0.553 0 0 0
10.793 19.944 0.553 0 0 0
10.718 19.955 0.552 0 0 0
10.675 19.949 0.552 0 0 0
10.602 19.965 0.552 0 0 0
10.526 19.971 0.551 0 0 0
10.456 19.992 0.551 0 0 0
10.38 19.998 0.55 0 0 0
10.309 20.016 0.55 0 0 0
10.232 20.02 0.55 0 0 0
10.189 20.015 0.549 0 0 0
10.115 20.023 0.549 0 0 0
10.046 20.043 0.549 0 0 0
9.971 20.051 0.548 0 0 0
9.902 20.069 0.548 0 0 0
9.826 20.075 0.548 0 0 0
9.759 20.097 0.548 0 0 0
9.684 20.104 0.547 0 0 0
9.642 20.098 0.547 0 0 0
9.569 20.106 0.546 0 0 0
9.499 20.122 0.546 0 0 0
9.42 20.119 0.546 0 0 0
9.357 20.149 0.546 0 0 0
9.283 20.154 0.545 0 0 0
9.208 20.158 0.545 0 0 0
9.171 20.161 0.545 0 0 0
9.101 20.175 0.544 0 0 0
9.026 20.178 0.544 0 0 0
8.956 20.192 0.544 0 0 0
8.888 20.209 0.544 0 0 0
8.819 20.224 0.543 0 0 0
8.746 20.23 0.543 0 0 0
8.708 20.231 0.543 0 0 0
8.634 20.234 0.542 0 0 0
8.564 20.244 0.542 0 0 0
8.492 20.253 0.542 0 0 0
8.426 20.274 0.542 0 0 0
8.353 20.276 0.541 0 0 0
8.288 20.3 0.541 0 0 0
8.215 20.302 0.541 0 0 0
8.178 20.304 0.541 0 0 0
8.105 20.307 0.54 0 0 0
8.04 20.329 0.54 0 0 0
7.967 20.332 0.54 0 0 0
7.901 20.351 0.54 0 0 0
7.83 20.357 0.54 0 0 0
7.763 20.372 0.539 0 0 0
7.722 20.362 0.539 0 0 0
7.657 20.383 0.539 0 0 0
7.491 20.135 0.535 0 0 0
7.422 20.143 0.534 0 0 0
7.353 20.15 0.534 0 0 0
7.288 20.169 0.534 0 0 0
7.219 20.177 0.534 0 0 0
7.155 20.197 0.534 0 0 0
7.22 20.48 0.538 0 0 0
7.258 20.797 0.543 0 0 0
7.298 21.122 0.548 0 0 0
7.342 21.466 0.553 0 0 0
7.385 21.815 0.558 0 0 0
7.43 22.175 0.563 0 0 0
7.473 22.536 0.569 0 0 0
7.56 22.918 0.575 0 0 0
7.61 23.316 0.581 0 0 0
7.658 23.713 0.587 0 0 0
7.712 24.139 0.593 0 0 0
7.769 24.582 0.6 0 0 0
7.831 25.051 0.607 0 0 0
7.884 25.5 0.614 0 0 0
7.948 25.995 0.621 0 0 0
8.051 26.476 0.629 0 0 0
8.12 27.008 0.637 0 0 0
8.19 27.553 0.645 0 0 0
8.264 28.121 0.654 0 0 0
8.338 28.704 0.662 0 0 0
8.413 29.305 0.672 0 0 0
5.769 20.366 0.53 0 0 0
5.738 20.377 0.53 0 0 0
5.674 20.395 0.53 0 0 0
4.254 15.503 0.452 0 0 0
4.198 15.489 0.452 0 0 0
4.152 15.512 0.452 0 0 0
4.113 15.562 0.453 0 0 0
5.34 20.433 0.529 0 0 0
5.305 20.43 0.529 0 0 0
5.239 20.439 0.529 0 0 0
5.175 20.457 0.529 0 0 0
5.107 20.459 0.528 0 0 0
5.043 20.473 0.528 0 0 0
4.977 20.485 0.528 0 0 0
4.912 20.497 0.528 0 0 0
4.845 20.501 0.528 0 0 0
4.812 20.504 0.528 0 0 0
4.747 20.517 0.528 0 0 0
4.681 20.526 0.528 0 0 0
4.615 20.535 0.528 0 0 0
4.55 20.546 0.528 0 0 0
4.484 20.556 0.528 0 0 0
4.419 20.566 0.528 0 0 0
4.385 20.565 0.528 0 0 0
4.32 20.579 0.528 0 0 0
4.255 20.592 0.528 0 0 0
4.19 20.6 0.527 0 0 0
4.124 20.607 0.527 0 0 0
4.058 20.616 0.527 0 0 0
3.992 20.622 0.527 0 0 0
3.959 20.627 0.527 0 0 0
3.894 20.637 0.527 0 0 0
3.829 20.647 0.527 0 0 0
3.765 20.663 0.527 0 0 0
3.699 20.671 0.527 0 0 0
3.633 20.675 0.527 0 0 0
3.568 20.684 0.527 0 0 0
3.503 20.695 0.527 0 0 0
3.469 20.697 0.527 0 0 0
3.405 20.713 0.527 0 0 0
3.339 20.716 0.527 0 0 0
3.273 20.722 0.527 0 0 0
3.209 20.739 0.527 0 0 0
3.144 20.752 0.527 0 0 0
3.079 20.762 0.527 0 0 0
3.045 20.755 0.527 0 0 0
2.98 20.767 0.527 0 0 0
2.915 20.778 0.527 0 0 0
2.85 20.793 0.527 0 0 0
2.784 20.796 0.527 0 0 0
2.719 20.806 0.527 0 0 0
2.654 20.819 0.527 0 0 0
2.588 20.821 0.527 0 0 0
2.556 20.829 0.527 0 0 0
2.491 20.837 0.527 0 0 0
2.426 20.849 0.527 0 0 0
2.36 20.856 0.527 0 0 0
2.295 20.866 0.527 0 0 0
2.229 20.875 0.527 0 0 0
2.164 20.885 0.527 0 0 0
2.131 20.883 0.527 0 0 0
2.066 20.895 0.527 0 0 0
2.001 20.908 0.527 0 0 0
1.935 20.914 0.527 0 0 0
1.87 20.928 0.527 0 0 0
1.805 20.944 0.527 0 0 0
1.739 20.943 0.527 0 0 0
1.706 20.948 0.527 0 0 0
1.64 20.955 0.527 0 0 0
1.575 20.96 0.527 0 0 0
1.51 20.977 0.528 0 0 0
1.444 20.984 0.528 0 0 0
1.378 20.988 0.528 0 0 0
1.312 21 0.528 0 0 0
1.246 21.004 0.528 0 0 0
1.214 21.014 0.528 0 0 0
1.148 21.026 0.528 0 0 0
1.083 21.033 0.528 0 0 0
1.014 20.983 0.527 0 0 0
0.947 20.962 0.527 0 0 0
0.823 19.626 0.507 0 0 0
0.76 19.593 0.506 0 0 0
0.729 19.592 0.506 0 0 0
0.669 19.63 0.506 0 0 0
0.61 19.714 0.508 0 0 0
0.588 21.087 0.529 0 0 0
0.522 21.105 0.529 0 0 0
0.456 21.114 0.529 0 0 0
0.39 21.126 0.529 0 0 0
0.357 21.134 0.529 0 0 0
0.29 21.139 0.529 0 0 0
0.224 21.154 0.53 0 0 0
0.158 21.157 0.53 0 0 0
0.091 21.169 0.53 0 0 0
0.025 21.177 0.53 0 0 0
-0.042 21.183 0.53 0 0 0
-0.109 21.195 0.53 0 0 0
-0.142 21.203 0.53 0 0 0
-0.209 21.214 0.53 0 0 0
-0.275 21.228 0.531 0 0 0
-0.342 21.229 0.531 0 0 0
-0.409 21.237 0.531 0 0 0
-0.476 21.242 0.531 0 0 0
-0.543 21.25 0.531 0 0 0
-0.61 21.259 0.531 0 0 0
-0.643 21.268 0.531 0 0 0
-0.71 21.269 0.531 0 0 0
-0.775 21.207 0.531 0 0 0
-0.821 20.653 0.522 0 0 0
-0.864 20.127 0.514 0 0 0
-0.926 20.108 0.514 0 0 0
-1.048 21.322 0.532 0 0 0
-1.081 21.326 0.533 0 0 0
-1.149 21.342 0.533 0 0 0
-1.217 21.355 0.533 0 0 0
-1.285 21.359 0.533 0 0 0
-1.353 21.37 0.533 0 0 0
-1.421 21.38 0.534 0 0 0
-1.488 21.38 0.534 0 0 0
-1.524 21.399 0.534 0 0 0
-1.592 21.406 0.534 0 0 0
-1.66 21.419 0.535 0 0 0
-1.728 21.416 0.535 0 0 0
-1.796 21.428 0.535 0 0 0
-1.865 21.44 0.535 0 0 0
-1.934 21.444 0.535 0 0 0
-2.002 21.448 0.535 0 0 0
-2.038 21.475 0.536 0 0 0
-2.121 21.623 0.538 0 0 0
-2.168 20.75 0.525 0 0 0
-2.159 20.044 0.514 0 0 0
-2.212 19.945 0.513 0 0 0
-2.277 19.96 0.513 0 0 0
-2.309 19.968 0.513 0 0 0
-2.358 19.838 0.512 0 0 0
-2.439 19.989 0.514 0 0 0
-2.503 19.989 0.514 0 0 0
-2.568 20.001 0.514 0 0 0
-2.634 20.019 0.515 0 0 0
-2.698 20.018 0.515 0 0 0
-2.764 20.03 0.515 0 0 0
-2.796 20.033 0.515 0 0 0
-2.866 20.07 0.516 0 0 0
-2.939 20.13 0.517 0 0 0
-3.008 20.158 0.518 0 0 0
-3.073 20.163 0.518 0 0 0
-3.138 20.161 0.518 0 0 0
-3.206 20.182 0.519 0 0 0
-3.239 20.185 0.519 0 0 0
-3.304 20.185 0.519 0 0 0
-3.368 20.178 0.519 0 0 0
-3.435 20.189 0.519 0 0 0
-3.486 20.105 0.518 0 0 0
-3.557 20.142 0.519 0 0 0
-3.619 20.124 0.519 0 0 0
-3.689 20.15 0.519 0 0 0
-3.724 20.16 0.52 0 0 0
-3.792 20.176 0.52 0 0 0
-3.854 20.154 0.52 0 0 0
-3.919 20.152 0.52 0 0 0
-3.993 20.194 0.521 0 0 0
-4.059 20.191 0.521 0 0 0
-4.128 20.206 0.521 0 0 0
-4.166 20.233 0.522 0 0 0
-4.235 20.243 0.522 0 0 0
-4.302 20.249 0.523 0 0 0
-4.371 20.259 0.523 0 0 0
-4.439 20.265 0.523 0 0 0
-4.508 20.274 0.524 0 0 0
-4.578 20.289 0.524 0 0 0
-4.611 20.288 0.524 0 0 0
-4.673 20.266 0.524 0 0 0
-4.744 20.284 0.525 0 0 0
