-0.960097 0.615271 -0.946685
1.25389 -0.790431 2.10566
-0.703999 0.521698 -1.22771
-0.877782 0.484522 -1.25536
-0.282125 0.00909609 -0.583838
-0.508337 0.468243 -1.1686
1.02819 -0.692043 1.16246
1.4445 -0.849249 1.77164
-0.516453 0.402035 -1.57089
1.89833 -0.978562 1.75343
1.5429 -0.704124 1.14165
0.653937 -0.517828 -0.303794
1.39624 -0.772408 0.798977
1.3216 -0.800482 0.769101
1.00724 -0.661513 0.356651
0.281878 -0.530103 -0.927503
1.97787 -0.954135 1.47705
0.70833 -0.6235 -0.622631
0.541175 -0.52286 -0.817476
1.3407 -0.76404 -0.0556867
1.74445 -0.9731 0.726982
0.4265 -0.57058 -1.44609
0.417617 -0.555817 -1.50364
1.06896 -0.726081 -0.793785
1.64689 -0.906785 -0.113731
0.306472 -0.394699 -2.37591
1.37342 -0.795563 -0.568173
1.74983 -0.849891 -0.135927
1.67781 -0.873149 -0.329045
2.3471 -1.19939 0.54232
2.1307 -0.995135 0.325856
1.63938 -0.743242 -0.610493
1.47866 -0.728267 -1.0872
2.23595 -1.07651 0.284039
1.24425 -0.772249 -1.80031
1.49911 -0.894334 -1.51673
2.0339 -1.04864 -1.0613
2.00502 -0.95973 -1.14043
1.78914 -0.87073 -1.68618
1.83347 -0.772752 -1.58156
2.15316 -0.984821 -1.25508
-1.68009 0.628964 0.737254
-1.96322 0.62332 0.557331
-2.4219 0.86157 -0.344231
-1.79279 0.851543 0.35812
-1.06521 0.660421 1.2621
-1.96595 0.716644 0.264529
-3.68458 0.860107 -1.8181
-1.94358 0.754754 -0.0845538
-3.55016 0.713488 -2.04176
-2.99429 0.5925 -2.05161
-0.22447 0.361337 1.15284
-0.814393 0.389347 0.80491
-1.9105 0.925942 -1.13895
-0.90014 0.304507 0.172447
-0.8682 0.457263 -0.0851795
-0.637099 0.43184 0.0779926
0.698036 0.226742 1.52475
-0.355342 0.030029 -0.091285
0.549143 -0.0892402 0.8019
-0.899647 0.684627 -1.26632
1.75662 -0.889386 2.01712
1.23781 -0.749621 1.17487
1.8785 -0.970866 2.1572
2.13266 -0.968241 1.78731
1.28263 -0.879592 0.68312
1.36929 -0.865893 1.08653
1.29539 -0.765223 0.623426
1.50036 -0.825202 0.628428
0.554857 -0.408914 -0.536679
0.900803 -0.698146 -0.606133
2.42557 -1.1573 1.71604
0.750584 -0.503827 -0.6977
0.338489 -0.584064 -1.55173
0.236278 -0.39488 -2.23817
1.52137 -0.821212 -0.489546
2.00487 -0.900448 -1.04398
1.95104 -0.830806 -1.11899
-1.48244 0.909172 1.52748
-1.74359 0.722778 1.04133
-2.07595 0.684476 0.224281
-0.88473 0.714168 1.4665
-1.76258 0.806744 0.531225
-1.88651 0.544385 0.380712
-1.91974 0.715711 0.228426
-0.852886 0.351981 0.554298
-0.828259 0.471064 0.352733
-0.815369 0.461314 0.231321
-0.771125 0.427683 0.356102
0.398582 0.331739 1.5518
-0.359827 0.0810908 0.538648
0.185892 -0.106124 0.244277
-0.637562 0.577076 -1.21783
0.826168 -0.21664 0.867976
1.9302 -0.833738 1.51467
0.146703 -0.454179 -0.949826
0.412457 -0.404574 -1.45888
2.32015 -0.998809 0.77131
1.65655 -0.837718 -1.00455
2.02556 -0.889846 -1.19949
-1.40091 0.704764 1.45279
-2.35452 0.649798 -0.6197
-1.4348 0.663998 0.11068
-0.42473 0.551559 1.4448
-0.150554 0.464304 1.58685
-0.859607 0.429843 0.178836
-1.76546 0.889523 -1.10078
-0.841051 0.450723 0.161
0.470958 0.228167 1.19371
0.530718 0.229854 1.36418
1.08788 -0.705756 0.367493
2.04436 -1.12332 0.571724
1.67172 -0.854033 -0.214416
0.321942 2.04296 1.9524
-2.42642 0.81585 -0.401871
-0.950535 0.427904 0.530933
-1.75267 0.891782 -1.35978
-0.337304 -0.13339 0.726899
-1.29358 0.498896 -0.917948
2.14562 -1.02104 0.0115369
0.0698321 2.31296 2.14137
-0.852032 0.292121 0.476372
-0.290094 0.171718 0.470669
-0.66731 0.555094 -1.23193
-0.400627 0.557185 -1.57271
-0.033499 -0.0739244 0.488102
-0.696937 0.649254 -1.10388
-1.15641 0.363143 -0.931736
-1.43134 0.658271 -0.469221
0.548615 -0.175189 0.394613
-0.638978 2.54633 1.94735
0.111795 2.26606 2.24815
-0.311519 2.51621 1.94955
-0.197014 2.44346 1.79489
-0.206514 2.34986 1.80997
-1.26165 0.785926 1.27816
-2.41764 0.798695 0.793399
-1.89352 0.663154 0.974001
-1.97917 0.902803 0.767291
-2.53338 0.681128 0.542153
-0.394148 0.48986 1.62488
-0.491384 0.657361 1.25284
-1.90184 0.688902 0.75514
-1.81609 0.692734 0.752594
-1.89454 0.685244 0.768646
-2.66535 0.878891 -0.0198168
1.39087 -0.786292 2.08572
-2.78556 0.736766 -0.210878
-1.94718 0.7605 0.196226
-1.8847 0.751782 0.152794
-1.80789 0.753259 0.22013
-1.74366 0.634856 0.232034
-0.661903 0.41134 0.57491
1.32547 -0.663633 1.63872
1.64046 -0.763786 1.90264
-3.2207 0.736089 -0.807104
-3.15501 0.686125 -1.02355
1.47104 -0.830854 1.65035
-0.889268 0.416017 0.322217
-0.776734 0.308819 0.307402
1.80608 -1.03948 1.55999
1.82173 -0.94163 1.53717
2.20595 -0.935296 1.57116
-3.21645 0.58049 -1.5568
-3.45974 0.707395 -1.89908
-3.24728 0.688828 -2.02655
-1.75823 0.868896 -1.30275
1.50548 -0.742401 0.620807
-1.789 0.905362 -1.51927
-1.64549 0.801861 -1.58873
-1.51568 0.791066 -1.94543
1.98555 -0.963164 -0.967079
-0.176745 -0.277493 -2.48155
0.124225 -0.304102 -2.26735
2.17096 -1.02549 -0.935273
0.799853 -0.532188 -2.22022
-0.639712 2.484 2.07292
-0.454062 2.42912 2.26542
-0.64644 2.4182 2.04289
-0.315183 2.43965 2.11269
-0.359761 2.41471 1.89292
0.116981 2.11869 1.90546
-1.05077 0.875493 1.24811
0.889994 0.144199 2.0588
-0.551819 0.548709 1.38744
-1.64086 0.709098 0.715008
-0.293082 0.571162 1.4133
-1.34505 0.70927 0.801513
0.0493814 0.389158 1.68458
-1.28945 0.629803 0.707738
-0.934626 0.340319 0.8172
-1.06582 0.718742 0.543136
-1.34256 0.730197 0.345857
-1.0928 0.613729 0.505108
1.99468 -1.08189 2.10585
-1.93167 0.68305 -0.0120839
0.775995 0.187394 1.31432
1.97296 -0.938982 2.0709
2.17584 -1.16721 2.17526
-3.04439 0.441761 -0.880918
0.502775 0.0127228 0.979753
1.94528 -0.9241 1.53761
0.467637 -0.198902 0.565778
1.10778 -0.709641 1.12374
1.81491 -0.991692 1.44808
1.8404 -1.00473 1.27535
2.34028 -1.02782 1.7074
-0.569069 0.318588 -0.0570499
-3.19824 0.68441 -1.56943
1.74984 -0.872737 1.16457
1.96243 -0.980218 1.19288
0.214343 -0.0985419 0.196598
1.13348 -0.809583 0.793089
-2.67409 0.500519 -1.6998
-1.89178 0.892143 -1.02574
1.06794 -0.54101 0.751521
1.11268 -0.835471 0.625554
-1.19109 0.492919 -0.690633
-1.54 0.711082 -1.04194
-1.84267 1.02313 -1.19992
1.2267 -0.782762 0.607772
-3.20527 0.492658 -2.02376
0.725388 0.117718 0.184499
-0.235559 0.0266734 -0.61135
-1.53456 0.880248 -1.58769
-1.34698 0.837331 -1.60827
1.24647 -0.75688 -0.245653
0.272917 -0.516073 -0.986291
1.20989 -0.642396 -0.823724
0.495434 -0.658521 -1.03217
1.31329 -0.765508 -0.656771
0.0877868 2.32733 2.03661
-1.61341 1.03333 1.38645
-1.13507 0.985545 1.45665
-1.75762 0.683251 0.883532
-1.97059 0.789611 0.552108
-1.92941 0.79251 0.837401
-0.405989 0.697848 1.45494
-2.58217 0.825374 0.352323
-1.37847 0.6375 0.819035
-1.43479 0.739824 0.663023
1.32521 -0.812032 2.2574
1.64786 -0.782753 2.43536
-1.82667 0.747726 0.258818
1.90133 -0.814246 2.40173
-1.21196 0.805262 0.621829
-0.927526 0.407558 0.468334
-1.7691 0.804954 -0.0809444
0.820288 0.0207793 1.27197
-1.70023 0.629752 -0.0225136
-1.71827 0.743183 -0.158613
-0.689423 0.530568 0.366891
-0.206187 0.0401736 0.653645
1.6994 -0.870875 1.33359
-0.732954 0.583607 -0.0861951
1.09043 -0.692535 0.916558
-1.2881 0.593158 -0.769677
-1.84486 0.904794 -1.13737
1.38409 -0.893505 0.744559
1.92595 -1.09031 0.965957
-1.80351 0.840574 -1.39423
2.32864 -1.27022 1.22841
-0.0965844 0.0125429 -0.585051
-2.85044 0.531395 -2.19322
1.85399 -1.06631 0.500601
0.573119 -0.49387 -0.40113
-1.44705 0.709438 -1.58043
1.05454 -0.626309 -0.056408
0.972045 -0.652101 -0.163557
1.05018 -0.590442 -0.34054
-1.16594 0.693115 -1.65129
0.221128 -0.345872 -0.9085
1.32509 -0.834429 -0.326843
2.35339 -1.04584 -1.78489
-0.857551 0.796056 1.34444
-0.854852 0.676546 1.54621
-2.01757 0.627041 0.968664
-1.9839 0.706274 0.849037
-0.430262 0.509831 1.5152
-1.60644 0.547541 0.890319
-1.9261 0.720089 0.603447
-1.86756 0.656703 0.639341
-1.97424 0.841638 0.491108
-1.83262 0.666506 0.450899
-0.767042 0.287738 1.02901
1.66132 -0.93504 2.13191
0.788187 0.0870885 1.31025
-0.918399 0.351991 0.53984
2.22816 -0.998204 2.42426
-0.759762 0.36721 0.445684
-0.788166 0.360142 0.324896
-3.09808 0.45801 -0.872059
-0.75989 0.373095 0.211437
-0.87183 0.365117 0.113233
-0.267937 0.0253894 0.338882
-0.474965 0.0814099 -0.00597044
-3.39384 0.638617 -1.96206
-1.92577 1.01066 -1.01722
-3.13562 0.625524 -2.07206
2.32069 -1.19763 0.833908
1.97424 -0.914885 0.500733
2.26535 -1.10576 0.791105
0.637519 -0.461482 -0.777515
1.69795 -0.942146 -0.196324
1.34347 -0.746409 -0.955158
2.35732 -1.0546 -0.965499
1.23215 -0.785619 -1.80722
2.04401 -0.974542 -2.02836
-1.61199 0.884691 1.49613
-0.39101 0.725729 1.54626
-2.43949 0.739024 0.281288
-2.5002 0.689106 0.275279
-1.81687 0.714836 0.492297
0.371194 0.422023 1.493
0.354558 0.365953 1.48742
0.961009 0.156528 1.63574
-1.01275 0.422789 0.49378
-0.0239633 -0.086802 0.765201
0.744093 -0.24897 0.779322
2.45114 -1.04466 1.51396
0.0300074 0.0216042 0.111604
-1.17089 0.348843 -0.860867
-3.08384 0.669282 -2.19737
0.373982 0.100634 -0.288551
-0.617761 0.589796 -1.26577
-0.706751 0.631323 -1.34948
0.116037 0.268494 -1.2381
0.0701141 2.25056 2.28784
2.01937 -0.973372 2.16621
2.66158 -1.03137 2.48077
-1.9444 0.803667 -0.117477
-0.297844 0.0191627 0.765399
-0.429602 0.124222 0.671351
-0.777837 0.288407 0.201919
-0.360191 0.0391038 0.0890295
-1.42621 0.484829 -0.904234
-1.97679 0.862144 -1.08758
-0.418284 0.0825616 -0.4342
1.77358 -0.823117 0.669429
1.40787 -0.817522 -0.145142
-1.83493 0.764638 0.740673
-0.110842 0.501714 1.51788
0.322823 0.231775 1.51241
-0.83145 0.472432 -0.178728
0.741195 -0.180342 0.461876
-1.28509 0.605434 -1.12001
-0.281295 0.0662306 -0.797147
1.80006 -0.88552 -0.398373
-1.49797 0.961715 1.62769
0.108967 0.477639 1.23789
0.34148 -0.240961 0.000435044
2.02747 -0.980523 -0.0749367
-1.26451 0.574318 -0.408546
-1.85957 0.901118 -0.957746
-0.67946 0.449648 -0.980579
-0.971251 0.492101 -0.917004
-1.28933 0.454968 0.0222486
-1.73864 0.773207 -0.624695
0.206046 -0.0430234 -0.0444754
-0.178883 2.39789 2.20749
-0.308449 2.26851 2.27735
-0.323221 2.27884 2.22388
0.0827107 2.41185 2.18642
0.148759 2.19801 1.9645
-0.393307 2.44897 1.85234
1.41103 -0.792128 2.37408
0.878756 0.204093 2.11459
0.108056 2.29525 1.99829
1.47434 -0.723576 2.20143
1.24108 -0.850788 2.19578
2.25568 -1.09195 1.55268
2.51606 -1.2598 1.68205
-1.54652 0.909072 1.63376
-1.67245 0.916795 1.39872
-0.0240822 0.476088 1.529
-0.3599 0.497591 1.39699
-0.320299 0.40898 1.47972
-0.380198 0.417959 1.52166
-0.24579 0.426013 1.56474
-0.224004 0.410239 1.40277
-1.84397 1.01072 1.22344
-0.275027 0.538642 1.37324
-0.147011 0.548054 1.29139
-0.703996 0.556491 1.29414
2.20866 -1.07951 1.20751
0.285658 0.324783 1.1955
1.23229 -0.753058 1.09752
0.959246 -0.774385 1.12706
1.63801 -0.986002 1.15442
0.432383 -0.0143679 1.03946
-1.882 0.708934 1.00356
-2.49413 0.664445 0.764705
-1.96715 0.640343 0.789597
-1.14394 0.729595 0.680092
-1.71519 0.745024 0.809076
-1.8063 0.758888 0.718481
-1.98192 0.668738 0.741515
-1.39338 0.648269 0.780824
0.708163 0.00522005 0.684249
-0.298767 0.0074896 0.726576
1.10987 -0.696884 0.861899
1.37427 -0.794024 0.53027
-1.09285 0.699252 0.680698
0.547462 -0.148789 0.612579
-2.30919 0.53567 0.589789
-2.4984 0.711426 0.388953
2.16024 -1.01018 0.807698
-2.49801 0.743829 0.470118
-0.332945 0.190723 0.551426
-2.50207 0.787092 0.423865
-0.654384 0.318179 0.5618
-2.54573 0.734956 0.334514
-0.208352 0.0757762 0.425144
-1.27078 0.530215 0.518661
-1.94508 0.677837 0.157524
-2.65178 0.84602 0.0575798
1.7199 -0.922606 0.292294
-1.87664 0.742397 0.18691
-1.84422 0.660109 0.133467
-0.897897 0.336555 0.12692
-2.4465 0.817505 0.0517788
-2.80428 0.821313 -0.109249
-1.98636 0.95305 -0.135158
-0.867503 0.369643 -0.100587
-2.75096 0.803694 -0.16345
-2.65527 0.836444 -0.372301
-1.311 0.627819 -0.374209
-2.59186 0.78052 -0.690494
-2.39958 0.786215 -0.673364
-2.34878 0.731218 -0.680851
-0.966761 0.595564 -0.588071
-1.0051 0.500761 -0.702524
-1.57341 0.540471 -0.661744
1.50341 -0.78818 -0.736395
-1.04196 0.533515 -0.671591
1.51835 -0.873541 -0.708396
-1.26629 0.602258 -0.85293
0.953236 -0.526331 -0.859966
0.849029 -0.695192 -0.958413
0.660974 -0.70084 -0.979124
1.11039 -0.766872 -0.825474
-0.0689098 0.19202 -1.03284
0.444045 -0.487514 -1.17031
-2.36588 1.16051 -1.22045
-2.01131 0.998977 -1.13607
1.28453 -0.75687 -1.20804
-1.88857 0.913376 -1.26702
-1.92251 0.918691 -1.11136
-1.79268 0.915307 -1.24215
-1.7728 0.899962 -1.44382
-1.77744 0.984368 -1.24986
-1.84884 0.937205 -1.25893
-2.03282 0.914787 -1.4923
-0.729276 0.559268 -1.1213
1.22987 -0.722121 -1.42436
-2.68992 0.445635 -1.6704
-2.67632 0.406443 -1.65562
-0.542401 0.524879 -1.30681
1.50555 -0.873257 -1.33227
-0.576652 0.562678 -1.36783
-3.64588 0.733569 -1.92026
0.753522 -0.639157 -1.45
-3.77152 0.878436 -1.99724
-3.24889 0.609583 -1.76304
-3.1028 0.665019 -1.91024
-3.21704 0.605764 -1.92078
-3.21627 0.550366 -1.9382
-3.29766 0.555232 -1.97551
-1.60706 0.855201 -1.70127
-0.00269714 -0.31536 -1.71054
-0.816286 0.606789 -1.67865
0.503227 -0.520771 -1.85829
0.220594 -0.449023 -1.83939
2.02193 -0.907165 -1.55652
0.0665118 -0.374703 -2.00774
0.391795 -0.446813 -2.02684
0.60548 -0.694025 -2.03878
-1.31654 0.81106 -1.96478
-1.44593 0.834758 -2.04937
2.20547 -1.0408 -2.10017
0.123852 -0.351794 -2.09564
0.229203 -0.318017 -2.48266
0.132075 -0.476662 -2.427
2.45092 -1.12955 -2.39576
0.22039 2.17229 2.42889
0.0458595 2.22484 2.29175
2.55281 -0.917292 2.3733
1.13938 -0.76539 2.25777
1.96992 -1.03462 2.21485
0.0889699 2.24726 1.90752
2.32739 -1.10496 2.24523
2.35785 -0.958782 2.29238
2.0603 -0.914937 2.32293
1.92041 -0.870435 2.04556
0.958391 0.260935 1.92153
1.90511 -1.02661 2.00145
1.89054 -0.936645 1.94801
2.43739 -1.12226 1.8896
1.97709 -0.846972 1.86049
2.46307 -1.10373 1.84042
2.32492 -1.09758 1.78887
0.36176 0.390457 1.56948
-0.205148 0.564555 1.51296
-1.22316 0.81222 1.33321
-1.91307 0.879841 1.27219
-0.594996 0.603205 1.40156
-1.67854 1.03491 1.23941
0.531688 0.364692 1.29962
-1.23773 0.845844 1.1918
-0.566364 0.608954 1.47257
0.563183 0.353893 1.3516
0.643251 0.25889 1.291
0.467217 0.287379 1.25946
1.54283 -0.798596 1.33273
1.19542 -0.829519 1.38001
2.10335 -0.931637 1.39484
1.78132 -0.952598 1.33804
1.65703 -0.844817 1.02127
-1.80561 0.850998 0.817454
1.53431 -0.832067 1.13483
-2.28584 0.676549 0.806855
1.67434 -0.919214 0.947924
-2.02923 0.808687 0.614016
-0.823527 0.387941 0.871587
-1.2836 0.818508 0.756675
-0.32698 0.0315183 0.794638
2.29941 -1.05094 0.862813
1.32359 -0.878701 0.745728
-0.217409 0.0970265 0.505681
1.70951 -0.926792 0.583192
-2.17503 0.608658 0.259233
-1.36801 0.461722 0.359322
-1.91589 0.689169 0.228852
-1.74866 0.589116 0.145124
0.14877 -0.0861636 0.064031
1.7062 -0.980598 0.346785
-0.400348 0.066189 -0.159596
-1.48265 0.515695 -0.258242
0.982604 -0.713373 -0.357978
-1.04709 0.552434 -0.447454
1.52421 -0.868696 -0.614186
1.58208 -0.919437 -0.58446
1.16882 -0.711324 -0.7398
-2.33882 0.72681 -0.835654
-3.37646 0.61207 -1.17024
-3.2346 0.673975 -1.15019
-3.09515 0.560958 -1.27093
1.51377 -0.722272 -0.818092
-1.79611 0.873886 -1.13186
-1.88213 0.955229 -1.33843
-0.0584169 0.222832 -1.15079
-1.74915 0.968526 -1.29016
-2.64665 0.336346 -1.56095
-0.659233 0.492359 -1.17043
2.01465 -1.02375 -1.27544
0.827352 -0.603026 -1.38227
1.18012 -0.636221 -1.40823
-2.84245 0.556845 -1.81148
-3.27454 0.642718 -2.00483
1.53292 -0.885299 -1.53338
-3.09232 0.75445 -1.94791
1.42791 -0.634098 -1.60882
-3.22805 0.58629 -1.94931
-3.32351 0.685943 -2.13995
0.081542 -0.312553 -1.74563
2.44169 -1.03318 -1.59573
-2.20096 0.981012 -1.7353
0.0397413 -0.451595 -1.99609
-0.94656 0.718201 -2.06946
0.444585 -0.477874 -2.13137
0.608352 -0.450405 -2.27803
-0.127438 -0.358804 -2.42733
2.64099 -0.950303 2.55822
0.0489445 2.35769 2.02113
2.81551 -0.964891 2.44261
1.53749 -0.864548 2.21787
2.5533 -1.14696 2.25637
1.91269 -0.907204 2.22309
2.23692 -0.999797 2.26448
1.39139 -0.834844 2.2461
1.39226 -0.787284 2.1246
1.83783 -0.936404 1.92099
-0.0663234 0.457005 1.44674
1.85625 -0.861938 1.55859
-0.641809 0.653019 1.32695
-0.87982 0.808159 1.11065
2.21773 -1.00688 1.29404
1.23112 -0.721033 1.04947
1.42227 -0.619026 0.980383
0.582644 -0.00516105 0.821087
1.45559 -0.713263 0.654002
1.98434 -0.849613 0.565901
-0.364482 0.159414 0.231902
-0.208336 -0.0112983 0.399883
-0.0666493 0.0557232 0.0896906
-1.88056 0.593212 -0.0225078
-0.792087 0.468088 -0.117817
-2.50317 0.718113 -0.331645
1.4512 -0.793837 -0.309478
2.05172 -1.10788 -0.46328
1.81033 -0.853352 -0.45451
0.780672 -0.684976 -0.498
-3.13861 0.696655 -0.765544
2.14479 -1.09451 -0.859009
2.0458 -1.0175 -1.05314
-1.2368 0.417351 -1.07899
-2.0416 0.888958 -1.40787
1.13423 -0.77071 -1.29981
0.0633694 0.151057 -1.15697
-0.622316 0.675928 -1.25285
-3.22062 0.578048 -2.01276
0.847047 -0.59541 -1.74686
-3.13538 0.704769 -2.085
-1.34099 0.696341 -1.96729
-0.923238 0.643912 -1.99309
1.05522 -0.724158 -2.2431
2.40989 -0.992354 -2.30836
2.61331 -1.14579 2.19556
1.93882 -0.963602 1.92482
1.84762 -1.02014 1.34204
-1.37071 0.801923 0.799241
-1.28953 0.792432 0.75
-0.955526 0.484154 0.534065
-1.18782 0.913733 0.668041
-2.44381 0.587289 0.625192
-0.695111 0.32974 0.578506
1.89255 -0.871581 0.28929
-0.1682 -0.057171 -0.0106343
-1.90019 0.891281 -0.0873084
-2.40753 0.743114 -0.541253
-1.45276 0.606465 -0.562256
-3.21713 0.661487 -0.914067
0.983501 -0.651366 -0.681446
-1.02512 0.543502 -0.789864
-2.57342 1.06765 -1.25744
-0.670603 0.428515 -1.20091
-0.671329 0.696558 -1.33528
-0.763061 0.519315 -1.38362
-1.94107 0.860435 -1.5001
0.453987 -0.520351 -1.5418
0.968043 -0.86683 -1.62997
-3.05961 0.614726 -2.02394
-1.24703 0.541964 -1.87047
1.23369 -0.734839 -1.51991
-3.23158 0.602606 -2.14043
0.787018 -0.554632 -1.90496
0.73647 -0.508886 -2.25095
-0.558179 0.627061 1.38879
-2.151 0.91859 1.18448
-1.93921 0.718302 1.0476
0.661467 -0.080499 0.82496
-1.60876 0.68207 0.696663
0.100787 -0.129237 0.762907
0.790013 0.0439476 0.220477
-0.22387 0.0872688 -0.148823
-2.58065 1.05917 -0.502088
0.680869 -0.674687 -0.454229
0.911193 -0.581593 -0.955991
-1.76205 0.862805 -1.41804
-1.91162 0.980172 -1.49833
-2.11611 0.843048 -1.60098
-0.495697 0.478724 -1.53407
-3.10738 0.519954 -2.11549
0.205636 -0.420896 -1.76759
-0.305636 0.55648 -1.82456
-0.573569 0.542575 -2.03656
1.85742 -0.915247 2.25532
1.54232 -0.797444 1.77214
0.779612 -0.0636802 0.866953
-0.703196 0.328867 0.646708
-1.56324 0.803224 0.760909
-1.33153 0.668468 0.717574
-1.87359 0.764504 0.342815
-0.320299 0.0336643 -0.0433055
-2.12411 0.804442 -0.437246
-2.32872 0.596235 -0.584478
-1.39709 0.423846 -0.987611
-1.76814 0.932657 -1.34097
-0.315208 0.206292 -1.52921
2.33738 -1.16004 -1.54979
0.219456 -0.490299 -1.71071
0.141358 -0.550286 -1.94484
2.77585 -1.06971 2.737
0.236921 2.27312 1.63292
-1.09983 0.592431 0.634406
1.78538 -0.892288 0.55478
1.62079 -1.00238 0.219981
-0.800544 0.569123 -0.254395
-1.82048 0.823264 -1.22906
-0.299408 0.249514 -1.30264
2.82365 -1.03201 2.40738
0.535077 -0.00719214 0.28405
-1.33585 0.495703 -0.134744
-1.95221 0.708538 -0.303228
-0.921894 0.591033 -1.14998
0.640905 0.0925844 1.24559
0.659561 0.0116298 1.19515
0.956462 -0.611903 -0.647476
-0.894488 0.59458 -0.774584
2.63729 -1.06449 2.27625
-1.21143 0.8645 1.48841
-1.86882 0.883639 -0.567612
-1.32085 0.576368 0.493518
-1.49023 0.782045 -0.094923
1.78083 -0.91182 -0.417463
-1.67551 0.762468 -0.916915
0.426108 -0.675688 -2.25374
-0.346809 0.693056 -2.05403
0.0899491 -0.410981 -2.07404
0.0496809 -0.459596 -1.91141
1.8192 -0.859475 -1.70961
-0.965345 0.783742 -1.61156
-3.5872 0.64512 -2.01815
1.60245 -0.89603 -1.70141
-0.738748 0.530705 -1.30902
-2.79044 0.422688 -1.53874
-3.17595 0.574944 -1.59852
2.13462 -0.982691 -1.24786
-1.86472 0.890129 -0.993809
-1.5267 0.528174 -1.06818
-3.22027 0.611543 -1.22246
1.38877 -0.691343 -1.00942
1.60407 -0.895818 -1.08625
1.14101 -0.714934 -0.970585
-1.50926 0.673791 -0.839379
1.79753 -0.830095 -0.592403
-1.44451 0.585506 -0.2482
1.92537 -0.886961 0.411095
-2.54217 0.726352 0.400497
-0.099769 0.193336 0.501626
-1.12909 0.727975 0.792374
-0.753231 0.404407 0.776022
-1.42805 0.68038 0.61288
-1.50757 0.65479 0.825056
0.655897 -0.0641884 0.733263
0.747073 0.0125406 0.854223
2.01335 -0.888929 0.673555
-2.32789 0.571993 0.805791
1.05993 -0.633204 0.891718
1.85842 -0.955642 1.39875
-0.594993 0.592746 1.29036
-0.699952 0.753116 1.33928
0.639191 0.227697 1.35544
-1.5038 0.883761 1.35628
-1.48621 0.922191 1.41098
-1.36751 0.992661 1.50642
-0.782964 0.634619 1.45339
0.663137 0.33367 1.57509
1.68054 -0.829835 1.95929
1.4319 -0.618843 2.14211
1.37862 -0.694629 2.1013
1.37554 -0.738548 2.23016
-0.685402 2.47886 2.00419
-0.279034 2.25803 2.04482
0.251315 2.19638 1.94468
0.437247 -0.493181 -2.19134
0.507683 -0.477941 -2.26904
1.08877 -0.546728 -2.22164
1.08779 -0.520706 -2.03492
-3.16289 0.555827 -2.04524
-3.35468 0.655934 -1.87234
-2.98336 0.681922 -1.61273
-0.582828 0.465017 -1.21298
-3.5028 0.681054 -1.71808
-1.32144 0.581026 -1.04341
2.01046 -1.08415 -0.942207
2.04291 -1.078 -0.936467
0.26458 -0.445997 -0.918152
-1.33497 0.528387 -0.851475
0.751346 -0.671123 -0.811903
-3.23418 0.555072 -0.816182
0.425392 -0.533263 -0.755859
0.265999 -0.398207 -0.625151
1.38515 -0.712153 -0.38238
0.643975 -0.700532 -0.484358
-2.46365 0.503243 -0.214102
1.50891 -0.743899 -0.388841
-2.3404 0.685394 -0.13764
-0.0222672 0.0441208 0.193236
-0.294544 -0.103014 0.168008
-2.35302 0.745279 0.194953
-0.130789 0.0260203 0.429339
-0.269926 -0.0401459 0.421946
-0.165681 0.0852266 0.461548
-2.39249 0.720263 0.550905
-0.16378 0.0817891 0.553928
2.24563 -0.973774 0.704884
-1.78398 0.717875 0.761663
1.29699 -1.00051 0.776207
1.94443 -0.870552 0.905624
-0.444934 0.012461 0.793188
2.18405 -1.04076 1.14005
0.354876 0.25592 1.3088
1.27559 -0.787242 1.33519
-0.0196386 0.413261 1.44496
-0.901753 0.580901 1.36619
0.717058 0.292936 1.44885
-0.800366 0.64461 1.40514
0.468692 0.28873 1.4745
1.51605 -0.778451 2.24545
1.60299 -0.853228 2.18634
1.73721 -0.948018 -1.78936
-3.40932 0.727215 -1.61673
-1.75949 0.86359 -0.974374
-1.53506 0.791673 -0.955066
-3.03771 0.541652 -0.94542
-0.216341 0.0562157 -0.379726
-0.216501 -0.127206 -0.43755
-2.54639 0.71475 -0.251223
1.42683 -0.877331 -0.111019
1.40005 -0.703251 0.0898895
-0.294214 -0.0370534 0.069455
-0.045521 0.0524696 0.0493439
-1.15883 0.572421 0.312434
1.63352 -1.06697 0.533546
1.85593 -0.924846 1.36894
0.399524 1.71371 1.79516
2.26358 -0.976295 2.18158
2.97082 -1.04588 2.4461
1.83107 -0.823204 2.50021
0.417422 -0.473615 -2.39922
0.380139 -0.457361 -1.93675
0.585907 -0.619396 -1.82092
2.33975 -1.09972 -1.27461
-1.5359 0.581105 -0.711264
-0.180211 -0.0445927 -0.203335
-0.71922 0.407228 -0.0181912
-1.34585 0.766894 0.812255
0.534701 -0.132453 1.06248
-2.02731 0.655413 0.947269
-0.284355 0.394958 1.20001
0.305595 0.51569 1.62727
2.29476 -0.979799 2.68093
1.50818 -0.761413 -1.88539
-2.85803 0.357644 -1.66615
0.470371 -0.59567 -0.638447
-1.98676 0.840395 -0.205923
1.6948 -0.903252 0.276467
-1.89062 0.679118 0.172899
-1.26992 0.802294 0.775531
1.15542 -0.663378 0.854681
0.649722 0.314129 1.36022
-1.5292 0.879962 -1.40633
1.84906 -0.983679 -1.07392
-0.489549 0.0896502 -0.623375
-1.33356 0.388769 -0.386965
1.69528 -0.883221 -0.0448401
-0.307954 -0.04363 0.595801
1.76955 -0.88309 0.638444
2.2289 -1.10071 2.27308
1.80821 -0.916982 2.38599
0.286558 -0.578459 -1.94079
-0.283468 0.0824416 0.623206
-0.92333 0.69559 0.665352
-1.15259 0.771461 0.680426
-2.03496 0.667899 0.749417
1.43994 -0.764138 1.32709
2.88298 -1.11606 2.39303
-0.539569 0.374517 -1.09368
-0.984088 0.471041 -0.710851
-0.84575 0.363298 0.841976
0.308106 0.264168 1.23971
-1.75207 0.904953 -1.12041
-0.558973 0.674684 1.47125
-1.24637 0.533775 0.565367
-3.35126 0.738778 -1.55134
-0.989822 0.609215 -1.57138
-0.726894 0.507667 -1.4859
-0.553972 0.62123 -1.3592
0.815216 -0.713191 -1.87462
0.787698 -0.473261 -1.71219
-2.50666 0.68617 -0.62147
-2.62982 0.74884 -0.671465
-1.20082 0.638354 -0.800773
0.848694 -0.630461 -1.36629
1.58805 -0.809017 -1.57787
-2.70915 0.809015 -0.181383
-1.22923 0.528455 -0.383825
-1.30238 0.691691 -0.308859
1.20536 -0.797575 -0.911045
1.45006 -0.722371 -0.843267
-1.6644 0.633115 0.462363
-1.72043 0.639632 0.505813
-0.279699 -0.0282097 0.281051
-1.11624 0.903888 0.622918
1.58835 -0.770804 -0.309172
1.09454 -0.656414 -0.178123
-0.994797 0.554181 0.787166
-0.754871 0.360227 0.913201
0.560871 0.0608227 1.01885
0.652756 -0.160793 0.8119
-0.764297 2.46707 1.98289
0.810978 0.172189 1.44653
-0.563898 2.52754 2.17845
0.837853 0.100444 2.33803
1.79907 -0.936659 2.19796
-1.78271 0.823015 -2.04472
-1.67192 0.886363 -1.1637
-2.41926 0.6363 -0.457052
-0.868273 0.390056 -0.731913
-2.58173 0.779324 -0.298761
0.402769 -0.516372 -1.21667
-0.971775 0.263367 0.0815048
-0.276918 0.117136 0.356942
2.61225 -1.233 -0.251688
1.37989 -0.806288 1.43381
-0.593877 0.54021 -1.36862
0.872102 -0.660153 -1.92437
1.25833 -0.850343 -1.53109
-1.16791 0.495084 -0.667542
-0.132592 0.161414 -0.316648
-0.377927 -0.0448489 -0.242812
0.664551 -0.188779 -0.0891311
-0.772694 0.445413 0.459847
-1.42788 0.70859 0.628061
-0.995587 0.423014 0.723442
1.2311 -0.613346 0.555821
0.523895 0.0995367 1.129
1.68793 -0.938135 0.672958
2.61145 -1.07301 1.4402
1.86518 -0.957465 1.8065
1.80573 -0.875428 2.36744
2.93676 -1.09069 2.49793
-2.20069 0.897274 -1.26666
-1.70828 0.908623 -1.06463
-0.895864 0.66805 -1.14045
0.0207137 0.260589 -1.41308
0.698827 -0.0181987 0.853109
1.71851 -0.987614 1.639
2.57746 -1.04664 2.46452
-1.6267 1.01733 -1.64308
-2.24346 0.631989 -1.00329
-1.23767 0.511617 -0.361823
-1.27962 0.581951 -0.168581
-0.760904 0.381 0.644226
-1.28838 0.898733 1.30304
-0.229185 2.43126 2.0262
2.06312 -0.978357 1.78629
2.41117 -0.884275 2.63197
-1.91701 0.824171 -1.47227
0.621607 -0.74474 -1.89464
-1.21863 0.584232 0.241542
0.706282 0.157055 0.105009
0.863115 0.215833 1.29283
-0.44288 0.537928 1.3524
1.27667 -0.551131 1.43716
-2.37593 0.774476 -1.22429
-1.82653 0.725532 0.711447
-1.97399 0.697941 0.793549
0.780099 -0.154911 1.05886
2.76862 -1.11738 2.42304
-1.18255 0.477003 -0.810073
-0.0313758 -0.0131471 0.440928
-1.90428 0.535801 -0.00623353
-0.154384 -0.0874038 -0.207593
0.149664 -0.0363678 -0.00143444
-1.69963 0.862948 -1.47083
-1.46393 0.538054 -0.751936
-0.53562 0.460271 -1.23116
-1.41649 0.610943 -0.578145
-1.52026 0.67204 -0.631885
0.105955 -0.328868 -2.16427
-2.48438 0.705095 0.361827
-1.77351 0.790608 -0.184492
-1.78498 0.787995 0.747541
-0.723894 0.413095 0.842608
1.97648 -0.990346 -1.31179
0.508977 0.0598367 1.00967
0.809961 0.0683169 1.50289
2.40441 -1.14156 1.61099
-1.78152 0.783654 -1.30513
-0.390848 0.755374 -1.44228
-2.53946 0.663947 -0.128454
-1.33244 0.584163 -0.683225
1.05115 -0.853896 -2.17369
-0.792959 0.303774 -0.0341914
-0.619607 0.303049 0.134319
-0.618118 0.431272 0.00835378
-0.281277 0.0157728 -0.155489
-0.623157 0.35948 0.380694
-0.649383 0.426518 0.659289
2.00721 -1.03506 -0.91741
1.30826 -0.789918 0.27729
1.84118 -0.886569 1.37387
-1.86212 0.820366 -1.25058
-2.25271 0.626048 -0.66908
-1.52138 0.694191 -0.831917
-0.686293 0.500927 -1.09372
-1.4681 0.648236 -0.196182
-1.20149 0.722864 0.578559
-1.11981 0.707026 0.587353
-0.802684 0.203048 0.286286
1.6251 -0.929421 -1.43485
-0.765066 0.341369 0.695225
-0.869748 0.432921 0.854404
-0.323594 0.087447 0.430263
0.0326679 2.20955 2.25757
1.60294 -0.872331 0.79216
-2.76517 0.773657 0.205754
-1.27809 0.605505 -0.358581
-1.32492 0.634668 -0.320091
-1.82507 0.700801 0.462762
-0.935726 0.486717 0.111084
1.23007 -0.703003 -1.28793
-0.65708 0.311066 0.234975
0.469432 0.0809483 1.13739
-0.874926 0.558292 -1.29317
-2.24511 0.646374 -0.044685
-2.28316 0.731046 0.195774
-2.29877 0.711697 0.831058
-1.85821 0.717932 0.885848
-1.1838 0.860324 1.34536
0.587396 0.292668 1.29491
2.75874 -1.03055 2.67719
-1.88701 0.976014 -1.13254
0.0715506 -0.368909 -1.9516
-1.74132 0.887492 0.0159965
-2.13088 0.954086 0.972861
0.676893 -0.0446158 0.95944
-2.61106 0.801317 0.291553
-1.47613 0.408747 -0.667279
-0.964025 0.43314 -0.740992
0.0954829 -0.397203 -1.92744
-0.815728 0.315219 0.417596
-0.280261 0.00738962 0.369592
-0.308851 2.24687 2.25925
-0.417562 0.646842 1.48093
2.29639 -1.19654 1.74886
-2.34351 0.705689 0.259336
-1.46563 0.534763 -0.591516
-1.49789 0.557496 -0.721857
-2.06702 0.704166 0.261436
-1.79835 0.727097 0.508235
-1.71921 0.620261 0.425681
-1.94085 0.708379 0.711925
-1.74887 0.671273 0.660558
-1.90628 0.810919 0.717673
-0.740254 0.436233 -0.23682
-0.713215 0.291757 0.0554377
-0.590478 0.506509 0.548617
-0.611743 0.299956 0.522334
-0.67824 0.278846 0.70157
-0.792885 0.647532 1.44932
-0.371105 0.353656 1.11769
-0.221915 0.579894 1.40819
1.28272 -0.83268 0.647508
1.67556 -0.715783 0.861487
2.45294 -1.02162 1.53677
-2.93138 0.613495 -2.06298
-1.93183 0.752542 0.851791
-1.53823 1.0043 1.39363
0.422539 -0.513418 -2.01432
-0.671378 0.383389 0.00358399
-0.780043 0.356951 0.709268
0.970625 -0.710296 -1.37254
0.786677 0.135226 0.0520216
1.29393 -0.803406 -0.437842
0.637232 0.205596 1.16148
2.11883 -1.0082 0.175946
-0.973375 0.524608 -1.0637
0.00561266 0.203787 -1.00027
1.87272 -0.973411 -1.25433
-1.48096 0.5668 -0.071939
-1.41642 0.402703 -0.182136
2.67771 -1.02916 2.68387
-2.70774 1.01163 -1.14903
-1.63796 0.590281 0.765307
-0.717463 0.552462 -1.39973
-0.425651 0.193214 0.372737
-2.06533 0.858441 -0.31381
-1.40935 0.437212 0.631728
-0.526656 0.402733 -0.618617
-1.59492 0.571856 -0.744714
-1.56149 0.732558 -0.517676
-0.686979 2.41273 1.94875
-1.09088 0.4607 0.112841
-0.730024 0.818028 1.34623
0.204636 -0.39439 -2.19881
0.518995 -0.629574 -1.22898
0.436519 0.24941 1.46608
0.79931 -0.127725 0.875476
1.24515 -0.752318 2.28031
-1.60408 0.583406 -0.808764
-1.79993 0.619192 0.472543
-1.7531 0.567923 0.857495
-1.73923 0.727953 0.728049
-0.952784 0.435974 -0.940672
-0.853734 0.365429 0.91258
0.251172 -0.350649 -1.8588
0.803491 -0.646255 -0.500726
0.835212 -0.569417 -0.567018
1.36826 -0.726607 0.936696
-3.01932 0.578157 -1.96588
-1.86271 0.691943 0.834038
-0.954061 0.410367 -0.78535
-0.751767 0.463511 0.471955
-0.817831 0.242984 0.783093
-0.532262 0.156039 0.354525
-0.506745 0.38221 0.666036
-0.29314 0.0922966 0.0896999
-0.302501 0.0881432 0.859225
1.73368 -0.92974 1.91515
1.91972 -1.01141 1.80799
-1.49398 0.676171 -0.535837
0.30152 -0.347004 -1.9168
1.00772 -0.67141 -1.39925
0.522033 0.0292343 1.13941
1.81394 -0.848578 0.576874
-0.323304 0.00769922 0.502893
2.09773 -1.09559 0.0446496
1.81397 -0.850119 1.46668
-1.43712 0.60663 -0.685969
-0.457129 0.577647 -1.23484
-0.182568 0.108947 0.372225
-2.2947 0.820105 -1.23014
-1.74269 0.742519 0.593569
-1.42023 0.673884 -0.081235
-0.439588 0.0225397 0.118473
0.379525 -0.0136574 0.242645
-2.59665 0.795596 -0.00647134
-2.43668 0.733211 0.0126291
-2.03777 0.692281 0.602781
-1.83501 0.823485 0.694236
-0.323564 2.39331 2.23675
-1.10137 0.465861 0.9647
-0.529184 0.112771 0.0764968
0.48235 -0.523706 -2.13232
0.529866 -0.490175 -0.900904
0.696142 -0.53785 -0.57167
1.05662 -0.679385 0.344357
1.41088 -0.786247 -1.14569
1.29642 -0.862003 0.221406
1.42873 -0.78454 -1.83103
-3.23817 0.621154 -1.82498
-3.29846 0.669582 -1.65491
-2.95856 0.461605 -2.01045
-1.57349 0.614322 0.67939
-0.810312 0.274319 -0.120585
0.39645 -0.183671 0.702444
0.603978 -0.67672 -1.55764
0.770145 -0.624127 -0.595372
1.07041 -0.654411 1.05819
1.24277 -0.79574 1.2387
1.1932 -0.694363 1.06352
1.37018 -0.791654 -1.48286
1.35332 -0.743113 2.39551
1.59135 -0.911505 -0.0561398
1.69411 -0.755316 2.11988
1.83043 -0.948277 1.82321
-3.47542 0.669246 -1.89808
-3.10266 0.762666 -1.46052
-1.78737 0.766475 0.613224
-0.920787 0.398777 0.0661953
-0.216191 0.360365 1.22768
-0.116164 -0.0622688 -0.182774
-0.162408 0.0304093 -0.282321
0.505839 -0.543758 -0.659008
0.471286 -0.595081 -1.53039
1.06923 -0.667336 0.237364
1.10383 -0.761998 0.955644
1.60408 -0.904787 -0.558883
1.49864 -0.866932 2.19465
1.56231 -0.879668 1.94452
1.62054 -0.754327 2.02149
1.77104 -1.00982 1.48565
2.01785 -0.947311 1.84457
-1.61933 0.578648 0.794145
0.182638 -0.401059 -2.08651
0.570403 0.209632 1.10873
0.951527 0.139047 2.20098
1.10269 -0.609809 -1.38344
1.15096 -0.849992 -0.125252
1.47921 -0.840992 -0.50401
1.84819 -1.07257 1.51563
-0.712177 0.461072 0.726932
1.66369 -0.871186 -1.35792
-0.667023 0.50958 0.418394
1.38341 -0.706849 1.29525
2.44461 -0.860245 2.55229
1.85565 -0.895038 0.482097
-0.899669 0.453173 -0.322163
0.245037 2.21762 2.30847
0.0234796 0.181052 -0.638508
0.360664 -0.140816 1.11091
0.638654 -0.0840892 0.954102
-0.604811 2.50282 2.13002
-1.42143 0.64481 0.726068
0.0274659 2.30395 2.15845
-1.89364 0.919713 -1.36963
0.139599 2.14538 2.25308
-1.07245 0.834999 0.58243
-0.64142 0.251336 0.694699
-0.667598 0.366882 0.797664
-1.01344 0.463529 -0.692619
-0.634586 0.268035 -0.0171374
-0.869459 0.569086 -1.39561
-0.602477 0.689095 -1.33309
0.147341 -0.356255 -1.79972
0.550847 -0.386589 -0.82905
0.575359 -0.589009 -0.784956
1.10541 -0.674585 0.384255
0.736072 -0.674029 -1.31233
1.37398 -0.552337 0.0467101
1.02309 -0.574125 -1.89377
0.870298 -0.808491 -2.07029
2.22786 -1.0292 1.16785
1.77613 -0.995441 -1.69948
3.3499 -1.40834 2.69914
-0.256126 2.42978 2.15037
-2.8742 0.45724 -1.8762
-2.16979 0.713568 -0.44751
-1.93161 0.611188 0.116893
-1.85581 0.67627 0.108298
-1.6103 0.600001 -1.0544
-0.831451 0.510094 0.637059
-0.465594 0.696611 1.36907
-1.24066 0.529761 -1.24864
-0.819404 0.312383 0.193551
-0.273096 0.1029 0.426383
-0.398654 0.170814 0.0115526
-0.112487 -0.177651 0.653517
0.331198 -0.360531 -0.923347
0.668841 0.0591282 0.0735243
0.145678 -0.313693 -1.91824
0.0231723 -0.439978 -1.99242
0.788934 -0.676913 -0.598846
0.626769 -0.529582 -1.81574
1.60078 -0.849847 0.87966
1.90433 -0.922078 2.21672
1.62026 -0.7973 1.04455
1.07095 -0.611537 -0.833567
1.95529 -0.949112 2.09121
1.88413 -1.077 1.84638
1.72558 -0.873811 1.65214
2.02744 -0.944637 1.93292
2.12393 -0.903255 1.88379
1.80642 -0.930403 0.201474
-2.57411 0.771426 -1.01385
-1.7992 0.73034 0.163075
-0.72917 0.313721 0.706499
-0.727113 0.284712 0.669459
-0.646617 0.353068 0.936266
-0.626096 0.371824 0.423403
-0.369612 0.0372621 0.0323454
0.268206 -0.116108 0.563642
0.338975 -0.201974 0.778435
0.208117 -0.324291 -1.89843
0.0820731 -0.417594 -1.83472
1.29052 -0.732232 2.14473
1.48215 -0.817499 2.20034
0.500016 -0.432192 -0.710321
1.6005 -0.794563 2.06495
1.02519 -0.626188 -0.438865
1.36165 -0.837549 0.66796
0.606308 -0.447175 -1.70746
0.48845 -0.583608 -2.16695
1.19064 -0.906749 0.759374
1.04336 -0.749157 -0.75004
1.18987 -0.950689 -1.78641
1.13354 -0.72409 -1.77048
1.69105 -0.872312 -0.224283
1.68278 -0.666076 -0.615048
2.45229 -1.18788 1.85076
2.38807 -0.94818 0.745143
2.2335 -1.02742 0.934885
2.15327 -1.00854 0.185265
2.25506 -0.989545 -0.964386
-2.03402 0.65139 0.614153
-0.893098 0.310765 0.617158
-0.854503 0.312648 0.577533
-0.706093 0.308 0.579365
-1.11112 0.68991 -2.01004
0.73264 -0.614629 -1.021
1.8077 -0.927295 1.61543
1.91997 -0.985583 1.60752
1.7539 -0.938085 0.963501
1.77826 -0.832305 0.668924
2.08328 -0.821079 0.65643
1.69976 -0.762911 -1.21386
-0.61591 0.267687 0.388861
-0.546042 0.556121 -1.55419
1.70189 -0.908706 1.26861
1.82962 -0.854371 0.351424
1.508 -0.86752 -0.158246
-3.21137 0.682942 -1.82504
-3.08506 0.712732 -1.88707
-1.26361 0.700081 -0.209583
2.2095 -1.00283 -0.0139463
1.76172 -1.01036 -0.898044
-0.295221 -0.0451786 0.426369
1.18005 -0.843622 0.0104611
-1.10794 0.445582 0.0353611
-1.62816 0.548705 0.122461
-0.770063 2.41128 1.97266
-1.52673 1.06347 1.13011
-0.019016 2.24271 2.14738
-1.95173 0.718716 0.778503
-1.88684 0.741226 0.428645
-3.14097 0.725432 -1.61623
-1.01912 0.45454 0.917312
-2.94824 0.547303 -1.96528
-3.07074 0.615101 -1.92739
-2.93936 0.503929 -1.80216
-2.98868 0.654915 -2.24928
-1.67151 0.604998 -0.627617
-0.676685 0.285565 0.410604
-1.61081 0.77473 -1.42835
0.320097 0.346955 1.51402
0.844304 0.0822969 2.04361
-0.885124 0.527066 -0.680001
-0.647164 0.527306 -1.40673
1.46909 -0.881259 1.77979
1.46667 -0.799484 1.72771
1.81519 -1.01009 1.66228
0.426538 -0.388202 -0.994985
1.54817 -0.933185 0.616936
2.06107 -1.06598 0.905506
0.231137 -0.493869 -2.05702
0.577739 -0.458391 -1.66081
1.51759 -0.923154 -0.411085
1.50738 -0.780157 -1.53793
2.23514 -1.09425 -1.82765
-1.87962 0.730749 1.05723
-1.83978 0.574822 0.250713
-3.38633 0.744765 -1.56091
-1.75313 0.763807 -0.110568
-0.248645 0.547546 1.49534
-1.03017 0.523556 0.491367
-3.05428 0.578406 -1.94056
-0.787765 0.416748 0.814123
-0.74495 0.318889 0.716391
-0.875733 0.283589 0.563914
-0.563641 0.33395 0.752752
-1.80557 0.951082 -1.23536
-0.795347 0.357435 0.100043
-0.871181 0.324243 -0.168639
-0.481133 0.317236 -0.0500035
0.955104 0.170352 2.06208
-0.198777 -0.00649298 0.067906
0.355113 -0.281303 0.725147
1.75039 -0.970039 2.13742
2.05139 -0.955573 2.29232
2.09704 -0.926133 2.25894
2.09927 -1.07484 1.53269
1.69993 -0.775388 0.745998
2.13218 -0.871699 -1.11675
1.77439 -0.854739 -1.66754
0.0717593 2.28702 2.14808
-1.41411 0.930114 1.50603
-2.00179 0.712309 0.754201
-2.50599 0.592184 0.116987
-1.65607 0.651539 0.798251
-2.0488 0.753433 0.295189
-2.98667 0.522353 -2.1399
-0.329896 0.455558 1.30243
-0.997383 0.355976 0.442599
-0.781177 0.250446 0.648536
-0.866193 0.387133 0.278163
-0.416473 0.186131 0.688229
-1.14617 0.543589 -0.99043
-1.26569 0.691818 -1.00347
1.62698 -0.934391 1.69328
1.64879 -0.829245 2.23966
1.28414 -0.733425 1.14596
0.361686 -0.559323 -1.06367
1.59359 -0.79322 1.08855
2.77757 -1.20089 2.5708
1.97675 -0.845874 0.862981
1.10058 -0.66893 -0.558609
1.50237 -0.7738 -0.764605
1.90966 -1.01359 -0.973278
2.28148 -1.04603 -1.70141
-3.58162 0.725851 -1.47863
-1.9419 0.676416 0.342972
-1.73813 0.742415 0.496337
-1.92223 0.678376 0.319486
-1.75973 0.748385 0.318778
-0.749586 0.68115 1.34333
-0.836182 0.416071 0.245676
-0.922291 0.429688 0.265606
-0.436358 -0.0074309 0.970685
-0.826673 0.355421 0.180954
-0.26765 0.14015 0.727023
2.50861 -1.00427 2.45989
1.81029 -0.959833 1.60133
1.25331 -0.735364 0.228778
1.65167 -0.90733 0.468135
0.309146 -0.399939 -1.43232
0.0452003 -0.414488 -1.84215
0.533384 -0.480807 -1.43212
1.70452 -0.778344 0.184525
2.0353 -1.05711 0.72732
2.28482 -1.01335 0.613494
1.43454 -0.791709 -1.53979
-1.24348 0.600234 1.2695
-3.26508 0.633468 -2.14396
-1.38881 0.659834 -0.93898
-0.29846 0.058878 -0.144883
0.512175 0.145636 0.052311
2.0797 -0.896279 0.0809676
-0.808014 0.439209 0.330058
-0.180563 0.0157516 0.915673
-0.752552 0.431516 0.576338
-0.758711 0.424988 -0.0182906
-1.18632 0.670677 -0.805889
-0.000211565 -0.0547081 -0.0941359
0.463987 -0.0891877 0.291864
-1.6124 0.575086 -0.111933
-1.75317 0.838834 -0.907546
-0.71035 2.46987 2.03704
-0.685643 2.41438 2.06016
-0.147402 2.19815 2.28042
-0.176327 2.33564 2.14379
0.0866893 2.12458 2.27679
-0.00896031 2.24659 2.30014
0.197328 2.07988 2.15359
-2.35584 0.637576 0.854996
-2.42975 0.701213 0.464768
-0.906859 0.644812 1.35882
-0.996314 0.821246 1.35124
-1.9473 0.583642 0.614891
-1.91531 0.700306 0.807549
-1.96134 0.685973 0.365817
0.85125 0.221778 2.1075
-2.56669 0.706491 -0.593183
-0.81582 0.356825 0.65719
-3.19129 0.668644 -0.912106
0.153043 0.335252 1.32349
2.04717 -0.848143 2.41126
-3.63478 0.851102 -1.92405
-3.74075 0.706919 -2.00179
-1.37407 0.631 -0.331336
-0.542271 0.217894 0.215016
-1.00647 0.42207 -0.0464664
-0.210084 0.0892685 0.338988
0.533429 -0.0799435 0.893303
-0.159664 -0.0286165 0.29796
-3.13524 0.565958 -2.05857
-0.878866 0.376198 -0.748585
-1.47164 0.807469 -1.60761
-1.30814 0.564484 -1.56734
1.78221 -0.795942 0.638743
-0.756342 0.504701 -1.67503
-1.32481 0.792912 -2.01966
2.32012 -1.16218 0.887817
1.82804 -0.857016 0.492948
-1.57518 0.932843 1.50166
-1.80171 0.73726 0.777011
-1.37413 0.760147 0.640376
-1.74911 0.775094 0.381081
-0.839175 0.422187 0.732836
-0.761969 0.493609 0.748388
-1.04919 0.417627 0.422027
-0.515097 0.0121952 0.802422
-0.250819 -0.0287221 0.328338
-0.587023 0.419225 -0.164558
-3.23184 0.633657 -2.05413
-1.36008 0.652721 -0.802363
-1.42188 0.544114 -0.803443
-1.81357 0.844333 -1.24472
0.0552555 0.000580414 0.468884
-2.94131 0.557585 -2.02197
0.710606 -0.131661 0.700854
-2.9816 0.469375 -2.06831
-3.05284 0.618416 -1.95244
-0.19917 -0.0214756 -0.0710955
-1.88162 0.86875 -1.65973
1.41755 -0.898555 0.757353
1.33283 -0.809734 0.827578
-0.958454 0.591224 -1.59997
-0.697248 0.564967 -1.61734
-0.692637 0.588094 -1.65065
0.404364 -0.481748 -0.909134
-0.0108992 0.362649 -1.29635
1.18362 -0.688459 -0.28716
0.41388 -0.470535 -1.07392
0.569052 -0.470303 -0.836854
1.01562 -0.676903 -0.671265
0.173214 -0.289359 -1.90127
2.05984 -1.00275 -0.407861
0.134032 -0.482573 -2.20807
0.392358 -0.561314 -2.28273
2.27394 -0.989673 -0.959814
1.55524 -1.05747 -1.5442
1.72997 -0.827247 -1.50032
1.7561 -0.954807 -1.75101
1.71498 -0.80535 -1.78541
-1.88381 0.79636 0.748344
-1.98573 0.698772 0.854133
-2.0145 0.728618 0.803671
-1.82256 0.644775 0.790539
-2.65718 0.743213 0.288578
-1.80112 0.860945 0.559003
-2.00404 0.752971 0.56333
-1.58114 0.665434 0.746961
-1.8678 0.645002 0.520133
-1.35853 0.854024 0.726441
-1.16186 0.670895 0.550355
-1.84592 0.587452 0.073688
-0.739534 0.360225 0.770138
-1.89871 0.847333 -0.00356343
-1.27914 0.465219 -0.0428376
-0.911523 0.322665 0.157996
-0.697866 0.379376 0.376641
-0.815459 0.31457 0.097795
1.9287 -1.01383 2.04893
-3.12205 0.65334 -2.06413
0.249332 -0.216705 0.57863
0.205397 -0.129329 0.508354
0.755372 -0.0745444 0.75914
-0.090589 -0.0453422 -0.00260151
1.09828 -0.710039 1.20913
1.16808 -0.547091 1.2644
1.14465 -0.633156 1.04528
2.32872 -1.04756 1.90112
1.495 -0.82143 1.11595
0.618264 0.0595954 0.269403
1.47843 -0.820212 0.71803
1.22479 -0.759693 0.604242
-0.802824 0.567768 -1.2873
-0.65943 0.516641 -1.10497
1.50806 -0.768551 0.500764
1.45022 -0.916991 0.602545
-0.616755 0.50957 -1.32279
1.46618 -0.837851 -0.36346
1.83376 -0.901106 -0.0274845
1.15558 -0.673016 -0.764813
2.18506 -1.08475 -0.705146
-0.32582 2.43257 2.00511
0.0725199 2.2749 2.15999
-1.82806 0.985385 1.32465
-1.87073 0.695565 0.902761
-2.21871 0.598774 0.146918
-0.656368 0.423174 0.771698
-0.894129 0.397878 0.351349
-0.803524 0.482888 0.250782
-0.759775 0.434825 0.27536
-3.46251 0.506783 -2.0337
-3.22654 0.706895 -2.09367
1.85454 -0.972143 1.80514
2.74643 -0.940375 2.45075
2.0603 -1.0856 1.98212
0.688546 0.124039 0.0726926
1.37443 -0.757874 0.637125
-0.49499 0.625452 -1.41957
2.18395 -1.01349 0.746956
2.12114 -1.0572 0.696124
1.30429 -0.825908 -0.657667
1.30305 -0.839137 -2.24646
-1.07964 0.888639 1.22573
-1.89676 0.851901 0.83877
-0.221679 0.581601 1.52074
-0.404047 0.326087 1.13976
-0.736229 0.525465 0.746247
-1.89811 0.826369 0.0291429
2.54296 -0.94093 2.69169
-3.25105 0.633408 -1.79709
-0.422764 0.0283895 0.15132
-1.56851 0.70516 -0.995471
0.0801993 -0.0744723 0.223081
-0.0723783 0.0259234 -0.30973
0.192065 0.152572 -0.351437
-0.636954 0.690714 1.52468
-2.43771 0.722837 -0.233981
-1.92431 0.73704 -0.0778367
0.451173 0.226744 1.35922
-1.21324 0.360606 -0.271343
-1.91069 0.849584 -1.33029
2.14431 -0.977907 0.738057
1.76147 -0.956929 -1.88134
-1.31644 0.485346 -0.234403
-1.52764 0.504507 -1.07051
-2.4491 0.717689 -0.411982
-1.09157 0.618522 0.315092
-1.42536 0.43784 0.386889
0.0247324 2.21405 2.24694
-0.177061 2.38652 2.05328
0.0838345 2.09235 2.24024
-0.798193 2.58417 1.98181
-1.21975 0.924422 1.4386
-0.625923 0.682058 1.46714
-0.405573 0.586351 1.15976
0.244409 0.522644 1.56116
-1.57497 0.675448 0.688954
-1.8927 0.64109 0.627056
-1.13613 0.761763 0.653341
-0.969784 0.507546 0.704155
2.48726 -1.14568 1.64257
-0.705703 0.303815 0.773677
-0.629529 0.362773 0.820125
-2.44051 0.483119 0.0779947
-2.34653 0.668771 -0.000821806
1.18121 -0.654338 0.96419
-1.72485 0.637427 -0.0426429
-0.131819 0.08416 0.637494
-2.48863 0.589418 -0.692444
1.04938 -0.659703 0.599518
2.25386 -1.06025 0.680431
2.15036 -1.06233 0.569047
-1.26198 0.497018 -0.64877
-1.51987 0.723825 -1.00143
-0.989185 0.464701 -0.859566
-3.64528 0.734111 -2.04824
0.692852 -0.592717 -0.389524
1.72222 -0.68842 0.00287226
-3.13911 0.734058 -1.93666
0.563662 -0.36545 -0.588582
0.747016 -0.682162 -0.658162
-1.79314 0.792139 -1.61334
0.419735 -0.483317 -0.905021
1.11219 -0.677815 -0.71634
-1.33722 0.723394 -1.5715
-1.04932 0.585772 -1.60994
1.73727 -0.857014 -0.625658
1.67876 -0.952127 -0.818879
2.00074 -0.88756 -0.964446
-0.346506 2.38378 2.11242
-0.432879 2.47211 1.91452
0.425683 1.95853 1.8661
-1.61876 0.971769 1.40982
-0.37614 0.53821 1.33453
-0.2811 0.447971 1.36251
-1.77043 0.731297 0.832729
-2.40557 0.721127 0.673294
2.19455 -1.03387 2.1822
-2.76 0.72592 0.103239
-1.13982 0.729016 0.433045
-2.48615 0.786791 0.0848749
-2.5829 0.744336 0.110236
-1.65989 0.641762 0.397638
-0.183932 0.0640463 0.854366
-0.556556 0.238811 0.493726
0.537301 -0.188318 0.826786
1.15856 -0.67216 1.31544
-2.51605 0.82406 -0.370118
2.16293 -1.08262 1.36729
1.21149 -0.681132 0.962233
0.335601 -0.195616 0.604001
1.37241 -0.61463 0.896543
-0.303107 -0.032522 0.509418
1.09499 -0.76156 0.893044
1.34339 -0.853084 0.877206
1.44603 -0.938256 0.91204
-3.12484 0.651615 -0.997591
-3.16659 0.529003 -0.910793
-2.525 0.776811 -0.7582
-3.12471 0.582568 -0.968022
1.29942 -0.842024 0.677283
1.99339 -0.929133 0.37851
1.88525 -0.946371 0.59255
-0.904318 0.331569 -0.446099
2.43888 -1.03331 0.662981
-1.78576 0.976291 -1.29501
-3.68795 0.816127 -1.88577
-3.55188 0.785088 -2.11993
-1.77032 0.864733 -1.34941
-3.45345 0.627517 -1.91525
-3.05951 0.456087 -2.01162
0.482157 -0.445486 -0.702698
1.099 -0.58323 -0.339748
-2.93892 0.55707 -2.02815
2.19879 -1.1894 -0.0994828
-3.13529 0.506114 -1.99697
0.647464 -0.496393 -0.831653
0.64085 -0.556751 -1.05499
0.496909 -0.502625 -1.42404
-0.545651 0.602982 -1.92604
0.0771638 -0.418473 -1.83589
2.16694 -1.00514 -1.05895
0.198035 -0.320193 -1.84004
0.554602 -0.575364 -1.74243
1.39823 -0.69129 -1.43348
2.05043 -0.980051 -1.13769
0.870337 -0.549474 -2.39484
-1.6125 1.03605 1.46187
2.38857 -0.986369 2.71575
-0.749448 0.719552 1.41831
1.43124 -0.750307 2.19839
-0.420496 0.519529 1.51508
1.34922 -0.901446 2.27093
2.54047 -1.03032 2.4737
-1.95264 0.760396 0.923839
-2.37766 0.791163 0.545355
-1.83353 0.56758 0.494774
0.87121 0.15593 1.5174
-1.99375 0.67833 0.42414
1.55724 -0.840988 1.82017
-2.69109 0.892004 0.139376
1.58325 -0.976697 1.58417
-2.54048 0.607669 0.110535
-0.466347 0.182123 0.741835
-1.39824 0.541452 0.406927
1.95402 -0.928573 1.31515
-1.87317 0.680804 -0.0502752
-0.107072 0.067424 0.535144
1.03581 -0.753246 0.791875
-2.5221 0.881418 -0.479341
0.0137964 -0.00542692 0.156706
-0.585936 0.404568 -0.276378
2.08653 -1.13203 0.830715
-1.94411 0.918308 -1.11526
-1.7664 0.81833 -1.27607
-1.95911 0.838076 -1.55053
-2.01814 1.00783 -1.41525
2.26261 -0.834075 -0.19529
-3.09625 0.699521 -2.14735
-2.88097 0.502294 -2.03798
-2.98756 0.533592 -2.08949
2.14461 -0.943028 -0.366155
-2.04267 0.959455 -1.73708
-0.813867 0.432034 -1.59884
2.03914 -1.03586 -0.998449
0.805169 -0.695019 -1.4527
1.49921 -0.896243 -1.63166
1.69576 -0.859186 -1.82823
1.75212 -0.945392 -1.69191
1.98894 -0.893837 2.22782
0.287377 0.420787 1.53998
2.1295 -1.01441 1.9491
-2.30567 0.564703 0.225034
-2.64532 0.606062 0.173782
2.06221 -0.831227 1.60028
-0.713624 0.474344 0.614945
-0.860064 0.418877 0.417126
1.76282 -0.933628 1.08894
1.25997 -0.72625 0.828477
0.24885 -0.383046 -1.7788
-1.35283 0.8078 0.649183
0.985606 0.0721875 1.32875
-0.372539 -0.0649718 -0.100332
-1.73449 0.861907 -1.2949
0.751786 -0.601339 -1.08834
1.69827 -0.803407 -0.649172
2.30296 -1.11768 1.84101
-1.54283 0.639212 -0.496698
-1.94688 0.865583 -1.09382
1.07658 -0.690616 -0.893923
0.140755 0.25086 1.23111
-1.93028 0.716775 0.67857
2.19679 -1.13289 1.98387
-2.03292 0.784782 -0.0831041
-1.50693 0.654293 -1.18151
1.0647 -0.720189 -1.23469
-0.0274963 -0.0083127 0.472529
-1.69873 0.689897 0.016003
-0.754295 0.475515 -1.32562
0.632923 -0.530039 -2.29765
-1.05665 0.785198 -2.08933
0.961614 -0.536367 -2.04377
2.47712 -1.11305 -1.92446
-0.555729 0.509509 -1.56985
-0.335307 0.398877 -1.29879
-0.498498 0.566783 -1.22751
-3.46755 0.725615 -1.28329
-3.25737 0.742105 -1.14092
1.33118 -0.861566 -0.356935
-0.237631 0.110687 -0.296285
-0.688336 0.42495 -0.129877
-0.680013 0.24563 -0.0217494
2.24114 -1.20251 -0.0191271
-1.8869 0.723885 -0.0180641
-0.226968 0.0123161 0.0621229
2.39374 -1.27822 -0.0391038
-0.242986 0.0650703 0.0210266
-1.18375 0.656423 0.178415
-2.34851 0.666033 0.165034
-0.288217 0.156792 0.588514
1.75891 -0.835626 0.77031
-1.03607 0.586589 0.700209
-1.52567 0.828209 0.86283
0.610438 -0.0175108 0.800952
0.471039 -0.000135586 0.911873
2.17588 -1.12836 1.02728
-0.895334 0.7964 1.51076
-0.366151 0.475076 1.39726
0.307863 0.357827 1.56248
