-0.0791667 -8.75318 -1.4267
-0.0481012 -8.73428 -1.42272
-0.0160079 -8.70738 -1.41675
0.0119923 -8.70748 -1.41576
0.0249577 -8.71752 -1.41776
0.0498959 -8.73561 -1.41976
0.0809855 -8.70971 -1.41478
0.11 -8.70581 -1.41279
0.134941 -8.7229 -1.41579
0.16292 -8.72899 -1.4158
0.188882 -8.74008 -1.4178
0.201845 -8.75112 -1.4188
0.228838 -8.75321 -1.41881
0.254779 -8.7703 -1.42181
0.282776 -8.7714 -1.42082
0.309758 -8.77649 -1.42183
0.344986 -8.7106 -1.40887
0.367821 -8.75868 -1.41685
0.378741 -8.78172 -1.42085
0.403638 -8.81181 -1.42584
0.433721 -8.78791 -1.42086
0.460679 -8.8 -1.42287
0.487652 -8.80809 -1.42387
0.516676 -8.80119 -1.42189
0.545755 -8.77829 -1.41791
0.56392 -8.73034 -1.40894
0.59301 -8.70444 -1.40396
0.617893 -8.73853 -1.40995
0.649048 -8.69363 -1.40099
0.673927 -8.72872 -1.40698
0.702989 -8.71081 -1.404
0.727862 -8.7479 -1.40999
0.740789 -8.76894 -1.41298
0.767779 -8.77204 -1.41399
0.794751 -8.78013 -1.41499
0.8217 -8.79522 -1.417
0.85083 -8.75732 -1.41002
0.878875 -8.74441 -1.40804
0.906916 -8.7325 -1.40506
0.918744 -8.78255 -1.41404
0.946775 -8.77364 -1.41205
0.97484 -8.75473 -1.40907
1.00283 -8.75783 -1.40908
1.02977 -8.77592 -1.41208
1.05672 -8.78902 -1.41508
1.08363 -8.81711 -1.41908
1.11173 -8.7862 -1.4141
1.12572 -8.79025 -1.4151
1.15271 -8.79334 -1.41511
1.18073 -8.78743 -1.41412
1.20884 -8.75453 -1.40815
1.23577 -8.77462 -1.41115
1.26375 -8.78071 -1.41216
1.29075 -8.78281 -1.41317
1.30483 -8.75885 -1.40918
1.3318 -8.76694 -1.41019
1.36062 -8.82005 -1.41917
1.38765 -8.81114 -1.41818
1.41561 -8.82323 -1.42019
1.44362 -8.81833 -1.4192
1.47064 -8.81442 -1.41921
1.48469 -8.79846 -1.41623
1.51173 -8.78755 -1.41424
1.53875 -8.78065 -1.41325
1.56674 -8.78374 -1.41426
1.59383 -8.75983 -1.41028
1.62083 -8.75892 -1.41029
1.64787 -8.74801 -1.40831
1.66279 -8.77106 -1.4123
1.6898 -8.76816 -1.41231
1.71964 -8.81326 -1.4203
1.74479 -8.76934 -1.41233
1.77091 -8.73643 -1.40736
1.79796 -8.72252 -1.40537
1.82876 -8.77963 -1.41536
1.84275 -8.78268 -1.41636
1.86596 -8.72075 -1.4054
1.89203 -8.70084 -1.40242
1.91714 -8.66792 -1.39644
1.94704 -8.69702 -1.40244
1.97598 -8.71412 -1.40544
2.00204 -8.69821 -1.40346
2.02903 -8.7003 -1.40447
2.04399 -8.71335 -1.40646
2.07005 -8.69644 -1.40448
2.09997 -8.71754 -1.40848
2.12893 -8.72864 -1.41049
2.15692 -8.73374 -1.41249
2.18973 -8.78785 -1.42248
2.2129 -8.73993 -1.41451
2.22687 -8.74698 -1.41551
2.25779 -8.77108 -1.42051
2.2819 -8.73916 -1.41553
2.30308 -8.68523 -1.40657
2.33302 -8.70333 -1.41057
2.36004 -8.69742 -1.40958
2.38706 -8.69251 -1.40959
2.3991 -8.68055 -1.4076
2.43295 -8.72267 -1.41559
2.45998 -8.71476 -1.41561
2.48895 -8.72486 -1.41761
2.515 -8.71095 -1.41563
2.54104 -8.69804 -1.41365
2.56611 -8.67812 -1.41166
2.57618 -8.65815 -1.40868
2.60515 -8.66625 -1.41068
2.63413 -8.67035 -1.41169
2.66213 -8.67145 -1.4127
2.69796 -8.72157 -1.42269
2.72401 -8.70566 -1.42071
2.74906 -8.69074 -1.41872
2.78295 -8.72386 -1.42572
2.79597 -8.71891 -1.42472
2.79454 -8.55189 -1.39581
2.84707 -8.68808 -1.42076
2.87311 -8.67716 -1.41977
2.89718 -8.65724 -1.41779
2.92814 -8.66935 -1.42079
2.95515 -8.66444 -1.42081
2.96916 -8.66149 -1.42081
2.99913 -8.67159 -1.42382
3.1362 -8.65006 -1.42488
3.17329 -8.62318 -1.4209
3.19834 -8.61026 -1.41992
3.22535 -8.60636 -1.41993
3.2504 -8.59244 -1.41895
3.28136 -8.60355 -1.42195
3.31134 -8.60865 -1.42396
3.3504 -8.59078 -1.42298
4.88229 -8.03696 -1.4178
4.88935 -8.01898 -1.41581
4.91737 -8.01308 -1.41682
4.93844 -7.99215 -1.41484
4.96844 -7.99225 -1.41685
4.99844 -7.99135 -1.41886
5.02249 -7.97743 -1.41888
7.913 -5.7642 -1.416
7.93705 -5.74829 -1.41802
7.95506 -5.74535 -1.42003
8.00305 -5.74951 -1.42704
8.03308 -5.73862 -1.43006
8.07209 -5.73575 -1.43507
10.7995 -3.52308 -1.66114
10.8166 -3.49514 -1.66216
9.91222 -2.74398 -1.46722
9.99023 -2.73925 -1.48025
-4.94408 10.2561 -2.08558
-4.95912 10.2441 -2.08557
-4.98721 10.2182 -2.08455
-5.05533 10.1834 -2.08551
-5.08939 10.1666 -2.08549
-5.12842 10.1577 -2.08847
-4.23332 8.67381 -1.76803
-4.22347 8.62878 -1.76002
-4.2376 8.58983 -1.75499
-4.27461 8.58896 -1.75898
-4.34863 8.5832 -1.76495
-4.3936 8.59335 -1.77094
-4.42066 8.57545 -1.77092
-4.46165 8.57858 -1.77591
-4.52065 8.57978 -1.78189
-4.55766 8.5759 -1.78487
-4.60761 8.59107 -1.79286
-4.64165 8.58218 -1.79485
-4.67667 8.5753 -1.79783
-4.7097 8.56641 -1.79981
-4.74165 8.58251 -1.80581
-9.50087 -1.80748 -1.87991
-9.49298 -1.8405 -1.8799
-9.47909 -1.87355 -1.87788
-9.49222 -1.91051 -1.88186
-9.47132 -1.94158 -1.87885
-8.73548 -3.76506 -1.83619
-8.67777 -3.85125 -1.83117
-8.65285 -3.87733 -1.82916
-5.79245 -5.86089 -1.55416
-5.75748 -5.869 -1.55017
-5.76055 -5.88999 -1.55316
-2.36977 -8.03545 -1.48626
-2.34078 -8.03955 -1.48527
-2.28986 -8.06272 -1.48528
-2.19998 -8.09802 -1.48429
-2.16796 -8.09213 -1.4813
-1.34878 -8.3369 -1.47047
-1.10595 -8.38672 -1.46653
-1.05502 -8.40989 -1.46753
-1.00106 -8.41907 -1.46655
-0.971031 -8.41217 -1.46456
-0.958051 -8.41822 -1.46456
-0.932082 -8.42731 -1.46557
-0.907116 -8.43739 -1.46557
-0.878113 -8.43649 -1.46458
-0.843012 -8.4076 -1.45761
-0.820088 -8.42968 -1.46061
-0.795122 -8.43977 -1.46161
-0.783153 -8.44881 -1.46261
-0.75718 -8.4569 -1.46261
-0.728177 -8.456 -1.46162
-0.698145 -8.4471 -1.45864
-0.672173 -8.45518 -1.45864
-0.639086 -8.43029 -1.45267
-0.608048 -8.4194 -1.44968
-0.604203 -8.46441 -1.45766
-0.57823 -8.4725 -1.45767
-0.523237 -8.47469 -1.45569
-0.498288 -8.48977 -1.45769
-0.466216 -8.46888 -1.45271
-0.441253 -8.47996 -1.45371
-0.41935 -8.50804 -1.45871
-0.269401 -8.52355 -1.45575
-0.238321 -8.50065 -1.45077
-0.219232 -8.47471 -1.44579
-0.191218 -8.4708 -1.4438
-0.168293 -8.49288 -1.4468
-0.146411 -8.52696 -1.45279
-0.121459 -8.54105 -1.45479
-0.0944653 -8.54314 -1.4538
-0.0654479 -8.53823 -1.45181
-0.0504205 -8.53028 -1.45082
-0.0213824 -8.51938 -1.44784
0.00356936 -8.53347 -1.44984
0.0336315 -8.51557 -1.44586
0.0606249 -8.51766 -1.44487
0.0824836 -8.55873 -1.45186
0.121432 -8.57387 -1.45386
0.150494 -8.55596 -1.44988
0.178501 -8.55406 -1.44889
0.204456 -8.56715 -1.45089
0.230425 -8.57624 -1.4519
0.25846 -8.56633 -1.44891
0.287491 -8.55743 -1.44693
0.300491 -8.55747 -1.44693
0.329529 -8.54657 -1.44395
0.351391 -8.58664 -1.45094
0.38147 -8.56374 -1.44596
0.40846 -8.56684 -1.44597
0.433405 -8.58292 -1.44897
0.460374 -8.59201 -1.44997
0.475419 -8.57906 -1.44698
0.528381 -8.59024 -1.448
0.637384 -8.58961 -1.44703
0.665432 -8.5757 -1.44405
0.681564 -8.53775 -1.43608
0.70645 -8.57084 -1.44207
0.735598 -8.52794 -1.4341
0.760498 -8.55702 -1.43909
0.786432 -8.57611 -1.44209
0.814494 -8.55821 -1.43911
0.841511 -8.5533 -1.43812
0.85338 -8.59134 -1.44411
0.881442 -8.57343 -1.44113
0.90848 -8.56252 -1.43914
0.935456 -8.56962 -1.44015
0.961418 -8.5807 -1.44215
0.989449 -8.5718 -1.44017
1.0165 -8.55689 -1.43718
1.03061 -8.52393 -1.4312
1.0576 -8.52702 -1.43121
1.08469 -8.50211 -1.42623
1.11167 -8.50821 -1.42724
1.13758 -8.5343 -1.43224
1.16344 -8.57439 -1.43923
1.19042 -8.58048 -1.44023
1.2044 -8.58653 -1.44223
1.31139 -8.59089 -1.44227
1.36543 -8.57707 -1.4403
1.37942 -8.58112 -1.4403
1.51351 -8.55557 -1.43636
1.54046 -8.56966 -1.43936
1.57954 -8.54679 -1.43539
1.60745 -8.57389 -1.44038
1.7136 -8.53025 -1.43344
1.73774 -8.48932 -1.42647
1.75454 -8.54539 -1.43645
1.86155 -8.54475 -1.43748
1.88758 -8.53384 -1.4355
1.91557 -8.53693 -1.43651
2.1817 -8.49983 -1.43462
2.32775 -8.48533 -1.43468
2.35476 -8.48242 -1.43469
2.40097 -8.42257 -1.42474
4.08827 -8.03928 -1.42852
4.13041 -7.99842 -1.42455
4.15247 -7.98049 -1.42257
4.19943 -7.99265 -1.42758
4.22644 -7.98975 -1.42859
8.22722 -6.56538 -1.62371
8.24729 -6.54344 -1.62373
7.55395 -5.778 -1.43387
7.54404 -5.75096 -1.42888
7.57307 -5.74106 -1.43089
7.61805 -5.74622 -1.43791
7.64808 -5.73732 -1.44092
10.1075 -4.11174 -1.6586
10.1678 -4.02195 -1.66167
10.1719 -3.98996 -1.66069
10.3139 -3.70244 -1.66388
10.33 -3.6755 -1.6649
10.335 -3.66151 -1.66491
9.60117 -2.75493 -1.48011
9.64422 -2.74008 -1.48613
-3.57392 10.3014 -2.07409
-3.64002 10.2717 -2.07505
-3.7081 10.2479 -2.07601
-8.97385 -1.80226 -1.8761
-8.98897 -1.83821 -1.88007
-8.97808 -1.86925 -1.87906
-8.97419 -1.90226 -1.87905
-8.93727 -1.92838 -1.87305
-7.42642 -2.88638 -1.63609
-8.11083 -3.87117 -1.82536
-8.10494 -3.90319 -1.82634
-8.06511 -3.95532 -1.82333
-8.06617 -3.97332 -1.82532
-8.10435 -4.02419 -1.83528
-8.07943 -4.04828 -1.83328
-8.02546 -4.05946 -1.82429
-8.05163 -4.10637 -1.83226
-8.0227 -4.12847 -1.82926
-7.95677 -4.15169 -1.81927
-5.24941 -5.84772 -1.55436
-5.21743 -5.85583 -1.55037
-5.21355 -5.88985 -1.55435
7.05074 -5.8373 -1.44566
7.00203 -5.75213 -1.42769
7.03305 -5.74723 -1.4317
7.08399 -5.76241 -1.44071
7.11999 -5.76153 -1.44573
7.13806 -5.7436 -1.44574
9.65355 -4.10121 -1.66445
9.68761 -4.08533 -1.66847
9.69171 -4.05434 -1.66649
9.70491 -3.99638 -1.66452
9.73014 -3.92747 -1.66356
9.74822 -3.90353 -1.66458
10.0723 -3.27563 -1.67601
9.19721 -2.74357 -1.48197
-6.81725 -2.83743 -1.62133
-6.76128 -2.84662 -1.61134
-5.99819 -4.3002 -1.59488
-4.59123 -5.79595 -1.55162
-4.56025 -5.80205 -1.54762
-4.52123 -5.79918 -1.54164
-4.48925 -5.80429 -1.53765
-4.45425 -5.8054 -1.53266
-4.41123 -5.79855 -1.52568
-4.38727 -5.81063 -1.52368
-4.35923 -5.80072 -1.51869
-4.36839 -5.84569 -1.52667
-2.15004 -7.22819 -1.49875
-2.12809 -7.24127 -1.49875
-2.1021 -7.24436 -1.49775
-2.07006 -7.23546 -1.49277
-2.04005 -7.23056 -1.48978
-2.03511 -7.24958 -1.49278
-2.00509 -7.24368 -1.48879
4.07615 -7.18824 -1.43894
4.09719 -7.17531 -1.43796
4.12022 -7.16839 -1.43897
4.1482 -7.17448 -1.44197
4.22224 -7.16273 -1.44501
6.25713 -5.7246 -1.41344
6.27219 -5.70565 -1.41346
6.29223 -5.69272 -1.41347
6.31527 -5.68279 -1.41548
6.34521 -5.6989 -1.42249
6.3782 -5.70101 -1.4265
6.40821 -5.69812 -1.43051
6.44718 -5.70525 -1.43652
6.47022 -5.69433 -1.43853
6.49724 -5.68842 -1.44155
6.54817 -5.7086 -1.45155
8.61432 -2.71058 -1.46479
8.67034 -2.70478 -1.47481
8.73634 -2.70301 -1.48783
-6.95494 -3.90607 -1.81674
-6.97608 -3.94801 -1.82471
-6.95315 -3.96908 -1.82171
-6.90028 -4.00726 -1.81471
-3.94045 -5.86515 -1.54381
-3.89943 -5.85729 -1.53683
-3.87144 -5.86138 -1.53283
-3.84848 -5.87346 -1.53184
-3.8225 -5.88054 -1.52984
-3.09588 -7.4531 -1.7123
5.90008 -6.89751 -1.63873
5.86994 -5.7773 -1.44128
5.87703 -5.74932 -1.4373
5.90603 -5.74842 -1.44131
5.92906 -5.7405 -1.44232
5.94904 -5.74657 -1.44632
5.97306 -5.73965 -1.44834
6.01103 -5.74879 -1.45534
6.03904 -5.74588 -1.45836
8.81827 -3.88639 -1.67926
8.8928 -3.73064 -1.67937
8.92185 -3.71474 -1.68339
8.9221 -3.64174 -1.67642
8.38225 -2.72881 -1.4927
-6.09231 -2.85589 -1.62357
-6.05835 -2.87 -1.61758
-3.51231 -5.8246 -1.53898
-3.49035 -5.83467 -1.53798
-3.46135 -5.83677 -1.53399
-3.42031 -5.8239 -1.52601
-3.40236 -5.83896 -1.52601
-3.38334 -5.83402 -1.52302
-3.36037 -5.8431 -1.52102
-3.36351 -5.8851 -1.529
5.41101 -5.75374 -1.43513
5.43702 -5.75183 -1.43814
5.45307 -5.73689 -1.43816
5.47801 -5.75298 -1.44416
5.50801 -5.75508 -1.44817
5.52804 -5.74515 -1.44918
5.56201 -5.75427 -1.45519
5.58902 -5.75136 -1.4582
8.56497 -3.68053 -1.67828
8.06124 -2.73172 -1.48858
8.08929 -2.71782 -1.4936
-7.20227 -1.63725 -1.8638
-7.19231 -1.64928 -1.8618
-7.20042 -1.67925 -1.86478
-7.1915 -1.70428 -1.86477
-7.17859 -1.73033 -1.86276
-7.18268 -1.75831 -1.86474
-7.16176 -1.78138 -1.86074
-7.14885 -1.80643 -1.85973
-7.13493 -1.83147 -1.85772
-5.74825 -2.84005 -1.6177
-5.7233 -2.85613 -1.6137
-6.29821 -3.69229 -1.81308
-6.29731 -3.7213 -1.81606
-6.28238 -3.74335 -1.81506
-6.25243 -3.75845 -1.81106
-6.26756 -3.7954 -1.81804
-6.24662 -3.81447 -1.81504
-6.24267 -3.82748 -1.81603
-6.22474 -3.84854 -1.81403
-6.2028 -3.86662 -1.81202
-6.19889 -3.89463 -1.81401
-6.17996 -3.91469 -1.81201
-6.15401 -3.93078 -1.80901
-6.18618 -3.97768 -1.81997
-3.06121 -5.79412 -1.53515
-3.04125 -5.80619 -1.53515
-3.02229 -5.81825 -1.53515
-2.98725 -5.80937 -1.52817
-2.95222 -5.79948 -1.52119
-2.94626 -5.8105 -1.52318
-2.91122 -5.80062 -1.5162
-2.88623 -5.8037 -1.51321
-2.87632 -5.82874 -1.5172
-2.82319 -5.79191 -1.50324
-2.81729 -5.82293 -1.50722
4.96007 -5.73622 -1.43598
4.96518 -5.70423 -1.43
5.00013 -5.71935 -1.43701
5.02314 -5.71543 -1.44002
5.04814 -5.71552 -1.44302
5.07314 -5.71361 -1.44603
5.08714 -5.71565 -1.44804
5.11712 -5.72076 -1.45305
5.13317 -5.70581 -1.45206
5.16713 -5.71793 -1.45907
5.18915 -5.71201 -1.46008
5.21813 -5.71611 -1.46508
8.09514 -3.92294 -1.67999
8.1162 -3.90601 -1.68301
8.19477 -3.73828 -1.68012
8.21183 -3.71934 -1.68114
8.23697 -3.67742 -1.68217
8.25004 -3.65647 -1.68218
8.25608 -3.64549 -1.68219
8.34254 -3.50878 -1.68629
8.35362 -3.48682 -1.6863
7.72137 -2.69257 -1.47648
7.75836 -2.6957 -1.48549
7.82135 -2.69692 -1.49852
-6.96926 -1.33604 -1.86803
-6.99432 -1.35395 -1.87401
-6.99441 -1.37995 -1.875
-6.98049 -1.405 -1.87299
-6.96657 -1.42905 -1.87099
-6.99468 -1.46096 -1.87796
-6.96275 -1.48206 -1.87196
-6.99286 -1.51396 -1.87993
-6.9829 -1.526 -1.87793
-6.993 -1.55496 -1.88191
-6.97308 -1.57803 -1.87791
-6.96416 -1.60306 -1.8779
-6.97226 -1.63103 -1.88088
-6.94833 -1.65411 -1.87588
-6.95643 -1.68209 -1.87886
-6.93646 -1.69215 -1.87486
-6.91254 -1.71423 -1.87086
-6.91463 -1.74123 -1.87185
-6.8957 -1.76429 -1.86884
-6.89079 -1.7903 -1.86883
-6.9149 -1.82223 -1.87681
-6.915 -1.84923 -1.87779
-6.86004 -1.86441 -1.8658
-6.85108 -1.87544 -1.8638
-5.47423 -2.83398 -1.6188
-5.44427 -2.84708 -1.6138
-6.18686 -3.29467 -1.81932
-6.08346 -3.47302 -1.81426
-6.04869 -3.54114 -1.81324
-6.0548 -3.57312 -1.81822
-6.02585 -3.58721 -1.81323
-5.99604 -3.64432 -1.81321
-5.99514 -3.67232 -1.81519
-5.99023 -3.69834 -1.81718
-5.95626 -3.70945 -1.81119
-5.94835 -3.73448 -1.81218
-5.94845 -3.76348 -1.81517
-5.91143 -3.7586 -1.80718
-5.90852 -3.78561 -1.80917
-5.88067 -3.8297 -1.80816
-5.85873 -3.84678 -1.80615
-5.84981 -3.87081 -1.80715
-2.58727 -5.81272 -1.53331
-2.55222 -5.80084 -1.52633
-2.53728 -5.81789 -1.52732
-2.50223 -5.80401 -1.52034
-2.48119 -5.79207 -1.51535
-2.46524 -5.80713 -1.51635
-2.43421 -5.79923 -1.51037
-2.41424 -5.8073 -1.50937
-2.39629 -5.82136 -1.50937
-2.37531 -5.82743 -1.50837
4.56102 -5.74987 -1.44484
4.58204 -5.74494 -1.44585
4.60107 -5.73601 -1.44686
4.62208 -5.73108 -1.44787
4.64906 -5.73717 -1.45287
4.66411 -5.72122 -1.45089
4.68407 -5.7343 -1.45689
4.70608 -5.73037 -1.4579
4.72312 -5.71843 -1.45791
4.75607 -5.73254 -1.46491
4.77709 -5.72661 -1.46592
7.86142 -3.84015 -1.68695
7.88746 -3.82824 -1.68997
7.87259 -3.79119 -1.68298
7.95584 -3.71548 -1.69105
7.96591 -3.69351 -1.69106
7.97 -3.66852 -1.68908
7.98307 -3.64857 -1.68909
7.98316 -3.62156 -1.68611
8.01619 -3.61168 -1.69212
8.00526 -3.59264 -1.68713
8.08657 -3.49992 -1.6942
8.09165 -3.47593 -1.69322
8.09769 -3.46495 -1.69323
8.10676 -3.44299 -1.69324
8.10186 -3.41397 -1.68825
8.14914 -3.33013 -1.69031
7.52828 -2.71892 -1.4934
7.54733 -2.70399 -1.49642
-5.31847 -4.06761 -1.80123
-2.08403 -5.74342 -1.52452
-2.06606 -5.75348 -1.52452
-2.044 -5.73755 -1.51853
-2.01798 -5.73264 -1.51355
-1.98795 -5.72274 -1.50856
-1.97803 -5.74677 -1.51155
-1.94598 -5.73288 -1.50557
-1.93305 -5.75192 -1.50757
-1.903 -5.74002 -1.50158
-1.88899 -5.73607 -1.49859
-1.86096 -5.72716 -1.4936
-1.85003 -5.7492 -1.4966
-1.81094 -5.72133 -1.48662
-1.78693 -5.71941 -1.48263
-1.77601 -5.74245 -1.48663
-1.75804 -5.75251 -1.48663
-1.78026 -5.81544 -1.50359
3.99291 -5.77996 -1.45462
3.96329 -5.67084 -1.42767
3.97131 -5.66487 -1.42667
3.99231 -5.66394 -1.42868
4.02027 -5.67604 -1.43469
4.0512 -5.69515 -1.44269
4.06526 -5.67819 -1.4397
4.07037 -5.64521 -1.43272
4.10827 -5.67634 -1.44472
4.10735 -5.65333 -1.43873
4.13531 -5.66343 -1.44473
4.15036 -5.64848 -1.44274
4.17534 -5.65357 -1.44675
4.20032 -5.65965 -1.45076
4.21934 -5.65272 -1.45177
4.2483 -5.66382 -1.45777
4.27421 -5.69191 -1.46677
4.28131 -5.66193 -1.46078
4.3202 -5.69407 -1.47278
4.35726 -5.6762 -1.4728
6.29142 -4.15274 -1.48725
7.10343 -2.67547 -1.46328
7.13845 -2.66859 -1.47029
7.18246 -2.66674 -1.48031
7.23245 -2.66692 -1.49233
7.41095 -1.93251 -1.46876
7.47695 -1.93174 -1.48478
7.66022 -1.84638 -1.52289
-4.82303 -2.77618 -1.61006
-4.77803 -2.77932 -1.59907
-4.75307 -2.79141 -1.59507
-4.70908 -2.79355 -1.58509
-3.73096 -4.23986 -1.5707
-3.69996 -4.24096 -1.56471
-3.67799 -4.24904 -1.56171
-1.49902 -5.7444 -1.52172
-1.47199 -5.73449 -1.51574
-1.44495 -5.72358 -1.50975
-1.42295 -5.72365 -1.50776
-1.39994 -5.72173 -1.50477
-1.38399 -5.73478 -1.50577
-1.35392 -5.71688 -1.49879
-1.33595 -5.72594 -1.49879
-1.32898 -5.73497 -1.49979
-1.29489 -5.70808 -1.48981
-1.28095 -5.72512 -1.49281
-1.26096 -5.72819 -1.49081
-1.2329 -5.71328 -1.48483
-1.21795 -5.72733 -1.48683
-1.19797 -5.7324 -1.48583
-1.18394 -5.72345 -1.48184
-1.16092 -5.71852 -1.47885
-1.13892 -5.7176 -1.47586
-1.11287 -5.70568 -1.47088
-1.09792 -5.72073 -1.47287
-1.07592 -5.71881 -1.46988
-1.05694 -5.72487 -1.46989
-1.04593 -5.72291 -1.46789
-1.03501 -5.74695 -1.47288
-1.07756 -5.90282 -1.51379
3.33567 -5.84874 -1.47236
3.31112 -5.71964 -1.43842
3.32617 -5.70369 -1.43543
3.33528 -5.67172 -1.42845
3.35627 -5.67479 -1.43145
3.36726 -5.67883 -1.43346
3.38132 -5.66187 -1.43047
3.40231 -5.66394 -1.43248
3.43024 -5.68404 -1.44048
3.44132 -5.66108 -1.43549
3.46529 -5.66916 -1.4395
3.48826 -5.67724 -1.4435
3.49628 -5.67127 -1.4435
3.52025 -5.68035 -1.44751
3.53728 -5.67041 -1.44652
3.5553 -5.66447 -1.44753
3.57629 -5.66654 -1.44954
3.59829 -5.66862 -1.45254
3.6173 -5.66468 -1.45355
3.63622 -5.68675 -1.46055
3.65226 -5.6758 -1.45956
3.67524 -5.68088 -1.46356
3.69029 -5.66593 -1.46158
3.71327 -5.67101 -1.46458
3.73328 -5.66808 -1.46659
3.75825 -5.67717 -1.47059
3.77619 -5.69423 -1.47659
3.79819 -5.69531 -1.4796
5.92635 -4.1745 -1.48511
5.94538 -4.16457 -1.48712
5.95544 -4.1476 -1.48613
5.98045 -4.14369 -1.49014
6.83843 -2.67457 -1.46618
6.86642 -2.67767 -1.47319
6.89445 -2.66977 -1.47921
6.94643 -2.67295 -1.49122
7.00341 -2.67815 -1.50524
7.26326 -2.13103 -1.51461
7.17658 -2.03772 -1.48562
7.24075 -1.98695 -1.49667
7.16591 -1.94168 -1.47467
7.16698 -1.92168 -1.47368
7.1271 -1.88754 -1.46068
7.14714 -1.87461 -1.46469
7.21613 -1.87586 -1.48172
7.25516 -1.86799 -1.49074
7.3371 -1.88328 -1.51276
7.28223 -1.84509 -1.49576
7.33724 -1.84228 -1.50978
7.26739 -1.80003 -1.48877
7.3234 -1.79623 -1.5028
7.15266 -1.72463 -1.45477
7.30256 -1.74915 -1.49381
7.39756 -1.74549 -1.51785
7.25479 -1.68398 -1.47783
7.35589 -1.65134 -1.50088
-5.84036 -1.66685 -1.85026
-5.84645 -1.69183 -1.85325
-5.82351 -1.70991 -1.84824
-5.82959 -1.73489 -1.85223
-5.82371 -1.76891 -1.85221
-5.81578 -1.79093 -1.85221
-5.81786 -1.81493 -1.85419
-5.81394 -1.83794 -1.85418
-5.78199 -1.85305 -1.84719
-4.81924 -3.70629 -1.80059
-4.81632 -3.7303 -1.80258
-4.80439 -3.75034 -1.80257
-4.78444 -3.76341 -1.80057
-4.76749 -3.77947 -1.79857
-4.76858 -3.80747 -1.80256
-4.72572 -3.84661 -1.79855
-4.70576 -3.85968 -1.79655
-4.68681 -3.87474 -1.79355
-4.65501 -3.93385 -1.79553
-4.52152 -4.0863 -1.7885
-0.759082 -5.7629 -1.51897
-0.741098 -5.76796 -1.51797
-0.715042 -5.75205 -1.51199
-0.691 -5.74013 -1.50701
-0.677059 -5.75718 -1.51
-0.664037 -5.75122 -1.50701
-0.647065 -5.75928 -1.50801
-0.628078 -5.76334 -1.50702
-0.609088 -5.76641 -1.50602
-0.587067 -5.76048 -1.50303
-0.568077 -5.76354 -1.50204
-0.551108 -5.7726 -1.50304
-0.537059 -5.75864 -1.49805
-0.519079 -5.76471 -1.49805
-0.49604 -5.75378 -1.49407
-0.481099 -5.77083 -1.49706
-0.45604 -5.75392 -1.49108
-0.439071 -5.76297 -1.49208
-0.418049 -5.75704 -1.48809
-0.400069 -5.7631 -1.4881
-0.392083 -5.76713 -1.4891
-0.372083 -5.7672 -1.4871
-0.350048 -5.75727 -1.48312
-0.332065 -5.76233 -1.48312
-0.319155 -5.78838 -1.48911
-0.293068 -5.76346 -1.48113
-0.274071 -5.76453 -1.48014
-0.267105 -5.77455 -1.48214
-0.253174 -5.7946 -1.48613
-0.251411 -5.86262 -1.5041
2.56285 -5.79512 -1.46912
2.57198 -5.75615 -1.45914
2.5869 -5.7782 -1.46613
2.59802 -5.74424 -1.45815
2.61308 -5.72828 -1.45417
2.63208 -5.72635 -1.45517
2.65305 -5.73742 -1.45918
2.67007 -5.72948 -1.45819
2.68611 -5.71753 -1.4562
2.69907 -5.73058 -1.4602
2.71314 -5.71062 -1.45621
2.73609 -5.7247 -1.46121
2.75607 -5.72977 -1.46422
2.7731 -5.72183 -1.46323
2.79605 -5.73491 -1.46823
2.8121 -5.72096 -1.46524
2.82407 -5.73001 -1.46924
2.83912 -5.71406 -1.46525
2.86207 -5.72814 -1.47125
2.8791 -5.71919 -1.47026
2.90008 -5.72527 -1.47327
2.91908 -5.72533 -1.47428
2.93809 -5.7224 -1.47528
2.95413 -5.71145 -1.4733
2.96907 -5.7295 -1.47929
2.9851 -5.71856 -1.4773
3.0051 -5.72062 -1.48031
3.02708 -5.7267 -1.48331
3.04311 -5.71575 -1.48132
3.06311 -5.71682 -1.48333
6.73292 -3.98334 -1.69249
6.80632 -3.86659 -1.69057
6.62831 -2.70787 -1.48709
6.63737 -2.6909 -1.48711
6.67338 -2.68803 -1.49612
6.71837 -2.68919 -1.50713
7.05954 -2.04535 -1.52458
7.04976 -1.98131 -1.51661
7.06981 -1.96838 -1.52062
7.0179 -1.9412 -1.50562
7.06991 -1.93738 -1.51864
7.08803 -1.90344 -1.51966
7.11007 -1.89052 -1.52467
7.08816 -1.86344 -1.51668
7.00532 -1.81815 -1.49167
7.10528 -1.8285 -1.5187
7.0274 -1.79422 -1.49569
7.09339 -1.79545 -1.51272
7.04752 -1.76129 -1.49772
7.10252 -1.75849 -1.51174
7.12856 -1.74558 -1.51775
7.11371 -1.70152 -1.51077
-4.28796 -2.75899 -1.60625
-4.264 -2.76907 -1.60126
-4.19695 -2.75728 -1.58328
-4.16697 -2.76438 -1.57629
-4.13499 -2.76949 -1.5693
-3.07585 -4.20907 -1.55994
-3.07188 -4.21909 -1.56094
-0.168927 -5.7189 -1.5122
-0.130926 -5.71903 -1.51021
-0.115978 -5.73408 -1.51321
-0.0898906 -5.70916 -1.50423
-0.0718975 -5.71122 -1.50424
-0.0528935 -5.71029 -1.50224
-0.0418797 -5.70632 -1.50125
-0.0218547 -5.69939 -1.49726
-0.00285446 -5.69945 -1.49627
0.013097 -5.71351 -1.49927
0.0361704 -5.69258 -1.49228
0.0551706 -5.69265 -1.49129
0.0701187 -5.7077 -1.49429
0.0811502 -5.69873 -1.4913
0.102189 -5.6878 -1.48631
0.116112 -5.70985 -1.4923
0.139179 -5.69093 -1.48532
0.157172 -5.69299 -1.48533
0.175162 -5.69605 -1.48533
0.194169 -5.69411 -1.48334
0.204176 -5.69215 -1.48234
0.219114 -5.7102 -1.48634
0.24118 -5.69127 -1.48036
0.258163 -5.69633 -1.48136
0.275132 -5.70539 -1.48236
0.297195 -5.68746 -1.47638
0.315185 -5.69052 -1.47638
0.331139 -5.70357 -1.47938
0.344213 -5.68261 -1.4724
0.360171 -5.69467 -1.4754
0.378161 -5.69773 -1.4754
0.395147 -5.70179 -1.47641
0.416203 -5.68586 -1.47042
0.43112 -5.70991 -1.47641
0.452196 -5.68798 -1.46943
0.459148 -5.702 -1.47343
0.479179 -5.69307 -1.47044
0.494117 -5.71112 -1.47444
0.515176 -5.69419 -1.46945
0.533179 -5.69325 -1.46846
0.552197 -5.68831 -1.46547
0.570176 -5.69438 -1.46747
0.579187 -5.69141 -1.46548
0.596166 -5.69746 -1.46748
0.61518 -5.69353 -1.46549
0.633173 -5.69559 -1.46549
0.652198 -5.68865 -1.4625
0.670191 -5.69071 -1.46251
0.687177 -5.69477 -1.46351
0.695142 -5.7048 -1.46551
0.71417 -5.69686 -1.46352
0.732177 -5.69492 -1.46253
0.750156 -5.70098 -1.46353
0.769219 -5.68305 -1.45755
0.786167 -5.6981 -1.46154
0.805202 -5.68817 -1.45856
0.822163 -5.69923 -1.46156
0.832202 -5.68826 -1.45757
0.849163 -5.69932 -1.46057
0.867191 -5.69138 -1.45758
0.885195 -5.69044 -1.45758
0.903188 -5.6925 -1.45759
0.922212 -5.68556 -1.4556
0.939202 -5.68862 -1.4556
0.948184 -5.69365 -1.4566
0.966195 -5.69071 -1.45561
0.984184 -5.69377 -1.45662
1.00218 -5.69583 -1.45662
1.02023 -5.67989 -1.45164
1.03822 -5.68495 -1.45264
1.05622 -5.68501 -1.45265
1.06526 -5.67204 -1.44965
1.08221 -5.6881 -1.45365
1.10124 -5.67917 -1.45066
1.1182 -5.68922 -1.45366
1.13623 -5.68228 -1.45167
1.15425 -5.67534 -1.44968
1.17222 -5.68541 -1.45169
1.18125 -5.67544 -1.44969
1.19821 -5.68749 -1.45269
1.21627 -5.67055 -1.44771
1.2342 -5.68962 -1.4527
1.25227 -5.67068 -1.44772
1.27019 -5.69174 -1.45372
1.28725 -5.67679 -1.44973
1.29621 -5.68683 -1.45173
1.31424 -5.67889 -1.44974
1.33223 -5.68095 -1.45074
1.35023 -5.68201 -1.45075
1.36823 -5.68007 -1.45076
1.38523 -5.68213 -1.45076
1.4032 -5.68919 -1.45276
1.41222 -5.68522 -1.45177
1.43022 -5.68328 -1.45178
1.44825 -5.67534 -1.44979
1.46525 -5.6764 -1.44979
1.48324 -5.67946 -1.4508
1.50129 -5.66352 -1.44681
1.51923 -5.68058 -1.45181
1.53726 -5.67364 -1.44982
1.54621 -5.68667 -1.45382
1.56325 -5.67673 -1.45083
1.58124 -5.67779 -1.45183
1.59924 -5.67985 -1.45284
1.61725 -5.67591 -1.45185
1.63524 -5.67997 -1.45285
1.6532 -5.69104 -1.45685
1.66125 -5.67506 -1.45186
1.68024 -5.67913 -1.45387
1.69725 -5.67618 -1.45287
1.71622 -5.68425 -1.45588
1.73324 -5.67731 -1.45489
1.7522 -5.68937 -1.45789
1.76925 -5.67643 -1.4549
1.77918 -5.69647 -1.46089
1.79624 -5.67752 -1.45591
1.81521 -5.68759 -1.45891
1.83127 -5.67064 -1.45492
1.85023 -5.6827 -1.45892
1.86726 -5.67176 -1.45594
1.8872 -5.69083 -1.46193
1.89524 -5.67986 -1.45894
1.9142 -5.68992 -1.46294
1.92927 -5.66897 -1.45696
1.94922 -5.68404 -1.46196
1.96528 -5.66809 -1.45797
1.98328 -5.66815 -1.45898
2.00225 -5.67522 -1.46198
2.01028 -5.66825 -1.45999
2.02925 -5.67531 -1.46299
2.04725 -5.67537 -1.463
2.06428 -5.66743 -1.46201
2.08523 -5.6825 -1.46601
2.10127 -5.66956 -1.46402
2.12123 -5.68063 -1.46802
2.13825 -5.67668 -1.46703
2.14822 -5.68272 -1.46903
2.16525 -5.67378 -1.46804
2.18522 -5.68484 -1.47104
2.20126 -5.6719 -1.46905
2.22026 -5.67296 -1.47006
2.23727 -5.66802 -1.46907
2.25821 -5.68609 -1.47506
2.26427 -5.66811 -1.47008
2.28327 -5.67018 -1.47208
2.30225 -5.67524 -1.47409
2.32223 -5.68131 -1.47709
2.33924 -5.67637 -1.4761
2.35725 -5.67443 -1.47711
2.37625 -5.67549 -1.47811
2.38622 -5.68253 -1.48011
2.40621 -5.6866 -1.48312
2.42618 -5.69467 -1.48612
2.4432 -5.68972 -1.48513
2.46219 -5.69279 -1.48713
2.4802 -5.68785 -1.48714
2.50017 -5.69692 -1.49114
2.51017 -5.69695 -1.49115
2.5272 -5.68901 -1.49016
5.35741 -4.15358 -1.48992
5.35845 -4.14158 -1.48793
5.38644 -4.14468 -1.49394
5.40746 -4.13975 -1.49694
6.37443 -2.67301 -1.47202
6.39746 -2.66509 -1.47703
6.43243 -2.67321 -1.48704
6.46544 -2.66933 -1.49406
6.51442 -2.6745 -1.50707
6.71013 -1.87814 -1.47154
6.80208 -1.89046 -1.49657
6.78916 -1.86741 -1.49057
6.73829 -1.83023 -1.47457
6.8612 -1.85267 -1.50861
6.85228 -1.83063 -1.50461
6.84136 -1.8076 -1.49962
6.89636 -1.80579 -1.51464
6.85744 -1.78365 -1.50164
6.84951 -1.76162 -1.49765
6.85557 -1.74464 -1.49766
6.93754 -1.75093 -1.52068
6.97457 -1.74306 -1.5297
6.98379 -1.67809 -1.52774
-4.03798 -2.76383 -1.60334
-4.01801 -2.7739 -1.59934
-3.95296 -2.76111 -1.58137
-3.934 -2.77217 -1.57737
-3.96409 -2.79807 -1.58835
-2.79192 -4.23104 -1.56603
5.11139 -4.15875 -1.49883
6.19736 -2.69241 -1.48595
6.21041 -2.67946 -1.48796
6.23542 -2.67355 -1.49297
6.27442 -2.67368 -1.50299
6.29645 -2.66476 -1.508
6.70304 -1.89714 -1.52753
6.68816 -1.86309 -1.51954
6.69022 -1.84509 -1.51855
6.69928 -1.82912 -1.51956
6.71632 -1.81618 -1.52357
6.71239 -1.79617 -1.52058
6.72344 -1.78121 -1.52259
6.68951 -1.76009 -1.51159
6.69856 -1.74512 -1.5126
6.76455 -1.74635 -1.53063
6.74664 -1.72229 -1.52363
6.76674 -1.69036 -1.52665
5.84465 3.90973 -1.65516
5.80387 3.97487 -1.65817
5.78494 3.99593 -1.65818
5.7521 4.04304 -1.66119
5.73713 4.0541 -1.66019
5.71223 4.08318 -1.6602
5.7053 4.1022 -1.6622
5.68737 4.12426 -1.66321
5.59374 4.23258 -1.66523
5.57075 4.23666 -1.66122
5.56983 4.26166 -1.66624
5.48614 4.35294 -1.66825
5.47419 4.36798 -1.66926
-3.34616 4.2878 -1.74813
-3.52189 4.07239 -1.74396
-3.85488 -2.73545 -1.59442
-3.82289 -2.73955 -1.58642
-3.77687 -2.7357 -1.57344
-3.7559 -2.74477 -1.56945
-3.71589 -2.7439 -1.55946
-2.59975 -4.18168 -1.55812
-2.56973 -4.17578 -1.55114
-2.54975 -4.18085 -1.54814
-2.54081 -4.19788 -1.54914
4.90839 -4.15707 -1.49876
4.90848 -4.13106 -1.49277
4.92645 -4.13913 -1.49778
4.93352 -4.12015 -1.49479
6.0164 -2.6818 -1.47789
6.00047 -2.66274 -1.4709
6.03846 -2.66487 -1.48091
6.06547 -2.66097 -1.48692
6.0815 -2.65002 -1.48993
6.14744 -2.66726 -1.50995
6.60852 -1.75482 -1.52857
6.5956 -1.73277 -1.52257
6.60865 -1.71782 -1.52459
-3.57798 -2.76638 -1.5945
-3.55601 -2.77446 -1.5895
-3.54706 -2.78949 -1.5895
5.73399 -3.95996 -1.70215
5.95086 -3.7037 -1.70335
5.9689 -3.69376 -1.70537
5.98697 -3.67282 -1.70638
6.01505 -3.64691 -1.70741
6.04405 -3.64602 -1.71542
6.02718 -3.60895 -1.70343
5.81837 -2.68913 -1.49182
5.84438 -2.68523 -1.49783
5.84644 -2.66723 -1.49584
5.87744 -2.66634 -1.50385
5.92142 -2.67149 -1.51586
-3.39798 -2.765 -1.60356
-3.38001 -2.77406 -1.59956
-3.32997 -2.76522 -1.58458
-3.30498 -2.7693 -1.57859
-3.36161 -3.82022 -1.78604
-3.35067 -3.83626 -1.78704
-3.3327 -3.84632 -1.78404
-3.248 -3.9346 -1.78202
-3.24202 -3.94162 -1.78202
-3.21411 -3.96772 -1.78102
5.6325 -3.81062 -1.70919
5.66743 -3.82975 -1.72119
5.65954 -3.79771 -1.71221
5.65763 -3.77271 -1.70722
5.67964 -3.76778 -1.71123
5.71761 -3.77692 -1.72224
5.72487 -3.69993 -1.70828
5.78514 -3.62014 -1.70734
5.83133 -3.56429 -1.70738
5.8364 -3.54531 -1.70539
5.64828 -2.71356 -1.50375
5.64236 -2.69154 -1.49876
5.66135 -2.69361 -1.50376
5.68436 -2.68869 -1.50977
5.71237 -2.68679 -1.51678
-3.18092 -2.74773 -1.60164
-3.14791 -2.74684 -1.59166
-3.12292 -2.75092 -1.58566
-3.11497 -2.76495 -1.58566
-3.07595 -2.75907 -1.57368
-3.04692 -2.75117 -1.56369
-1.62681 -4.19998 -1.55446
-1.6068 -4.19804 -1.55046
-1.59579 -4.19608 -1.54747
-1.59891 -4.23107 -1.55745
7.04264 -14.0801 -4.89351
4.04746 -4.13616 -1.50647
5.40842 -2.67274 -1.48868
5.42146 -2.66279 -1.49069
5.42451 -2.6468 -1.4887
5.47047 -2.65696 -1.50271
5.49149 -2.65204 -1.50772
5.53546 -2.66019 -1.52174
4.76578 3.95238 -1.6638
4.74989 3.98343 -1.66881
4.70702 4.02258 -1.66981
4.69105 4.03063 -1.66781
4.67908 4.04167 -1.66781
4.65516 4.06575 -1.66982
4.45275 4.23844 -1.67283
-2.34583 4.08542 -1.73438
-2.37195 4.0495 -1.73135
-2.41406 4.01865 -1.73332
-3.01184 -2.7263 -1.59671
-2.97382 -2.72142 -1.58573
-2.96286 -2.73346 -1.58373
-2.91983 -2.7256 -1.57075
-2.90686 -2.73564 -1.56875
-2.87282 -2.72275 -1.55676
-1.41771 -4.17068 -1.55354
-1.38775 -4.18278 -1.55155
-1.36774 -4.17985 -1.54756
-1.35975 -4.18288 -1.54656
3.77148 -4.12822 -1.50038
3.79943 -4.14432 -1.50938
3.8305 -4.12342 -1.5094
5.25344 -2.66922 -1.48863
5.26647 -2.65927 -1.49064
5.29546 -2.66137 -1.49965
5.30247 -2.65639 -1.50066
5.33147 -2.65749 -1.50867
5.36844 -2.66363 -1.52068
-2.81788 -2.73796 -1.59478
-2.78988 -2.73905 -1.58679
-2.75787 -2.73515 -1.5768
-2.73083 -2.72624 -1.56681
-2.71886 -2.73628 -1.56581
-2.68585 -2.73238 -1.55483
-2.90563 -3.53176 -1.78535
-2.89769 -3.54679 -1.78634
-2.86679 -3.57789 -1.78534
-2.85282 -3.58794 -1.78434
-2.84187 -3.60098 -1.78433
-2.56578 -3.87191 -1.77829
-1.09776 -4.18576 -1.55065
-1.07773 -4.17983 -1.54566
-1.06275 -4.18388 -1.54366
-1.04373 -4.17994 -1.53967
-1.04983 -4.20693 -1.54865
5.97307 -11.6531 -4.26036
6.67042 -13.2588 -4.87279
7.13289 -14.2646 -5.26044
7.15117 -14.1836 -5.23649
4.98763 -3.77044 -1.71298
5.01561 -3.77454 -1.72099
5.02266 -3.75956 -1.719
5.02275 -3.73556 -1.71301
5.03977 -3.72962 -1.71602
5.07493 -3.68274 -1.71306
5.13914 -3.61795 -1.71411
5.21333 -3.56221 -1.72017
5.20942 -3.53619 -1.71218
5.22346 -3.52624 -1.71419
5.22951 -3.51026 -1.7122
5.1014 -2.67971 -1.49557
5.1264 -2.6788 -1.50358
5.14142 -2.67085 -1.50559
5.15944 -2.66591 -1.5096
5.18743 -2.66701 -1.51861
5.21044 -2.66409 -1.52462
-41.2808 11.8122 -15.7117
-2.63991 -2.74855 -1.58483
-2.61291 -2.74864 -1.57684
-2.61398 -2.76764 -1.58083
-2.57995 -2.76175 -1.56985
-2.47048 -3.78323 -1.77637
-2.43665 -3.83235 -1.78036
-2.21123 -4.00711 -1.77135
4.22505 -4.23586 -1.70948
4.59801 -3.95312 -1.71076
4.61598 -3.96119 -1.71676
4.62204 -3.9432 -1.71377
4.63209 -3.92924 -1.71178
4.66006 -3.93834 -1.72079
4.68604 -3.94343 -1.72879
4.68313 -3.91541 -1.7198
4.69916 -3.90847 -1.72181
4.69924 -3.88347 -1.71583
4.70933 -3.8595 -1.71184
4.92997 -3.66825 -1.71602
4.95891 -3.68635 -1.72802
4.95301 -3.65833 -1.71903
4.96604 -3.64737 -1.72004
4.9941 -3.62947 -1.72206
5.00714 -3.61951 -1.72307
5.01419 -3.60353 -1.72108
5.02918 -3.60759 -1.72608
5.0462 -3.60065 -1.72909
5.08955 -3.49678 -1.71416
5.13065 -3.46793 -1.71819
5.14568 -3.45998 -1.7202
5.15871 -3.45002 -1.72221
5.15579 -3.42601 -1.71522
5.1648 -3.42304 -1.71722
5.16986 -3.40606 -1.71423
5.19394 -3.38414 -1.71625
5.3766 -3.18876 -1.72241
4.96436 -2.69125 -1.49652
4.99434 -2.69535 -1.50653
5.01933 -2.69644 -1.51354
5.0184 -2.67744 -1.50955
5.04838 -2.68154 -1.51855
5.06337 -2.68359 -1.52356
-2.52783 -2.72394 -1.59188
-2.5018 -2.71502 -1.5819
-2.48682 -2.72207 -1.5789
-2.44878 -2.71219 -1.56492
-2.43681 -2.72123 -1.56392
-2.41281 -2.72231 -1.55693
-2.38981 -2.72238 -1.54993
-2.3628 -2.72047 -1.54194
-0.615691 -4.1674 -1.54983
-0.583689 -4.1675 -1.54484
-0.554643 -4.1546 -1.53585
-0.54166 -4.15964 -1.53586
-0.526662 -4.16069 -1.53386
-0.509651 -4.15774 -1.52987
-0.487597 -4.14281 -1.52188
4.78647 -2.65964 -1.48047
4.80049 -2.65268 -1.48348
4.82845 -2.66478 -1.49449
4.84147 -2.65683 -1.49649
4.86347 -2.65591 -1.5025
4.87151 -2.64493 -1.50251
4.8965 -2.64602 -1.51052
4.94743 -2.66521 -1.52953
-2.35481 -2.71752 -1.58995
-2.33281 -2.71959 -1.58396
-2.3048 -2.71568 -1.57497
-2.31288 -2.73966 -1.58195
-2.27384 -2.72878 -1.56797
-2.25084 -2.72886 -1.56098
-2.25788 -2.74284 -1.56697
-0.248658 -4.15864 -1.54496
-0.237688 -4.16767 -1.54596
-0.222684 -4.16672 -1.54396
-0.210712 -4.17476 -1.54596
-0.189655 -4.15883 -1.53698
-0.186701 -4.17184 -1.54097
-0.171689 -4.16889 -1.53798
-0.158706 -4.17394 -1.53798
4.64641 -2.67417 -1.49142
4.65246 -2.66119 -1.49043
4.67346 -2.66126 -1.49643
4.69745 -2.66335 -1.50444
4.71645 -2.66041 -1.50945
4.73546 -2.65748 -1.51446
4.75347 -2.65454 -1.51947
4.76846 -2.6576 -1.52447
-2.18889 -2.74308 -1.59299
-2.15987 -2.73818 -1.58301
-2.13884 -2.73024 -1.57502
-2.11784 -2.73031 -1.56803
-2.10186 -2.73536 -1.56503
-2.08186 -2.73643 -1.55903
-2.08493 -2.75642 -1.56502
-1.3954 -4.05886 -1.76161
0.326229 -4.19358 -1.54014
4.48544 -3.52974 -1.71993
4.55234 -2.69486 -1.51437
4.55539 -2.67987 -1.51138
4.55744 -2.66487 -1.50839
4.5824 -2.67596 -1.51839
4.59342 -2.668 -1.5204
4.61044 -2.66406 -1.52441
4.62246 -2.6561 -1.52542
5.21171 -1.6971 -1.53211
-2.02682 -2.72063 -1.59206
-2.01183 -2.72568 -1.58906
-1.99183 -2.72675 -1.58307
-1.96181 -2.71984 -1.57208
-1.96187 -2.73684 -1.57608
-1.92883 -2.72695 -1.56409
-1.91685 -2.73399 -1.56109
-1.9239 -2.74797 -1.56708
-1.93098 -2.77195 -1.57607
-1.50659 -3.81849 -1.76869
1.58245 -4.13182 -1.52861
3.79626 -3.87641 -1.72051
3.81724 -3.88249 -1.72752
3.81634 -3.85448 -1.71753
3.86042 -3.82963 -1.71856
4.47206 -3.3457 -1.72202
4.3583 -2.7042 -1.5103
4.36534 -2.69323 -1.50931
4.37936 -2.68827 -1.51232
4.38939 -2.67931 -1.51333
4.41437 -2.6844 -1.52133
4.40841 -2.67137 -1.51634
4.44137 -2.68249 -1.52934
-0.116532 4.16589 -1.6932
0.192453 1.39038 -0.60691
-1.86985 -2.73016 -1.58911
-1.84583 -2.72724 -1.58112
-1.83385 -2.73328 -1.57812
-1.81987 -2.73832 -1.57513
-1.80284 -2.73138 -1.56813
-1.80491 -2.75138 -1.57512
-1.79695 -2.7614 -1.57512
0.275658 -1.50292 -0.61348
-1.20878 -3.8755 -1.76677
1.71606 -1.40272 -0.467034
1.7359 -1.4468 -0.487019
1.76462 -1.52692 -0.521989
1.81216 -1.65711 -0.57994
3.77653 -3.79635 -1.73555
3.76861 -3.77132 -1.72456
3.77566 -3.75734 -1.72157
3.79764 -3.76442 -1.72957
3.79773 -3.73842 -1.72058
3.81473 -3.73848 -1.72459
3.84578 -3.72158 -1.72561
3.89189 -3.68874 -1.72564
4.40934 -3.26249 -1.72604
4.42236 -3.25553 -1.72805
4.25336 -2.68785 -1.51527
4.26637 -2.68289 -1.51728
4.27341 -2.67192 -1.51629
4.31534 -2.69207 -1.53529
4.32636 -2.68511 -1.5363
4.32044 -2.66308 -1.52931
4.33343 -2.66513 -1.53331
0.912824 4.26841 -1.68461
-1.76674 -2.69851 -1.58316
-1.76379 -2.71252 -1.58616
-1.73576 -2.70461 -1.57517
-1.70672 -2.6967 -1.56419
-1.69976 -2.70673 -1.56518
-1.67775 -2.7038 -1.55719
-1.67276 -2.70881 -1.55719
-1.64975 -2.70489 -1.5482
-1.64378 -2.71591 -1.5502
3.37119 -3.89498 -1.72336
3.37622 -3.88799 -1.72136
3.39122 -3.88704 -1.72337
3.42629 -3.86516 -1.72339
3.84715 -3.61159 -1.72667
3.88327 -3.57871 -1.7247
3.8923 -3.56774 -1.7237
3.91229 -3.57181 -1.72971
3.91535 -3.55282 -1.72372
4.13031 -2.70043 -1.51522
4.11742 -2.67038 -1.50223
4.14339 -2.67848 -1.51224
4.14544 -2.66348 -1.50825
4.18437 -2.68362 -1.52625
4.20333 -2.69269 -1.53525
4.2184 -2.67274 -1.53427
25.6013 6.77728 -10.7635
25.5966 6.85929 -10.7715
25.5908 6.93931 -10.7786
25.5941 7.02329 -10.7896
2.30621 4.08669 -1.69301
2.20929 4.10902 -1.69299
1.71961 4.20667 -1.70086
1.47368 4.2275 -1.70279
1.3407 4.23295 -1.70274
1.32771 4.235 -1.70374
1.24071 4.23629 -1.70471
1.22672 4.23834 -1.70571
1.21368 4.22839 -1.7017
1.16671 4.23654 -1.70569
1.12671 4.23668 -1.70667
1.0537 4.23492 -1.70664
1.0137 4.23306 -1.70663
0.939677 4.22731 -1.7066
0.594546 4.18948 -1.70946
0.567543 4.18857 -1.71045
0.540519 4.18166 -1.71044
0.467485 4.17191 -1.71141
0.369415 4.15124 -1.71136
0.311365 4.13643 -1.71034
0.285341 4.12952 -1.71032
0.247298 4.11665 -1.7093
0.174244 4.1009 -1.71027
0.129206 4.09005 -1.71125
0.0771622 4.07723 -1.71222
0.0620967 4.05728 -1.70621
-0.0900131 4.02579 -1.71314
-0.10804 4.01785 -1.71213
-0.196151 3.98515 -1.71208
-0.226208 3.96825 -1.71006
0.375625 1.13481 -0.504845
-1.60889 -2.74304 -1.5852
-1.60093 -2.75407 -1.58619
-1.58292 -2.75413 -1.5812
3.99245 -2.66096 -1.4982
4.00845 -2.66101 -1.5032
4.0115 -2.64702 -1.49921
4.05139 -2.67717 -1.52121
4.0654 -2.67322 -1.52422
4.07343 -2.66424 -1.52422
4.09143 -2.66431 -1.52923
4.09448 -2.65132 -1.52624
4.11347 -2.65238 -1.53324
0.454582 1.12154 -0.498866
0.465512 1.09951 -0.487858
0.354165 0.99689 -0.484768
-1.44676 -2.70559 -1.57627
-1.43176 -2.70764 -1.57228
-1.40774 -2.70071 -1.56229
-1.39873 -2.69974 -1.55929
-1.38374 -2.70179 -1.5553
0.461998 -1.12049 -0.485738
0.45578 -1.18248 -0.508705
0.487906 -1.14758 -0.487733
-0.379897 -3.9123 -1.75404
-0.326993 -3.94048 -1.75604
1.1341 -4.21441 -1.73641
1.53199 -4.24377 -1.75154
1.54403 -4.23381 -1.74655
2.77893 -3.96898 -1.74611
2.786 -3.95 -1.73912
2.79108 -3.92702 -1.73014
3.0014 -3.83173 -1.72726
3.01838 -3.83879 -1.73326
3.03239 -3.83583 -1.73427
3.04441 -3.83087 -1.73427
3.05444 -3.82191 -1.73328
3.07141 -3.82797 -1.73929
3.08938 -3.83603 -1.74529
3.08448 -3.80801 -1.7333
3.08955 -3.78902 -1.72631
3.30489 -3.68975 -1.73044
3.31188 -3.68978 -1.73244
3.32688 -3.68983 -1.73544
3.32797 -3.66383 -1.72646
3.57345 -3.52466 -1.72961
3.63458 -3.48487 -1.72966
3.71577 -3.42914 -1.72971
3.8401 -3.33256 -1.7278
3.85112 -3.3256 -1.72881
3.8721 -3.33067 -1.73582
3.86725 -2.71855 -1.52812
3.87328 -2.70857 -1.52713
3.87234 -2.69056 -1.52114
3.88735 -2.68962 -1.52514
3.90634 -2.69168 -1.53215
3.91035 -2.6877 -1.53215
3.92336 -2.68474 -1.53516
3.93836 -2.6828 -1.53917
0.369764 1.1818 -0.560866
0.394643 1.14373 -0.539856
0.393623 1.13773 -0.537853
0.352756 1.17986 -0.56486
0.319858 1.21196 -0.584864
0.277 1.25709 -0.613872
0.248082 1.28318 -0.630875
0.276948 1.24109 -0.607864
0.265976 1.25012 -0.614865
0.285874 1.21807 -0.596855
0.207144 1.30331 -0.649871
0.303477 1.09603 -0.5498
0.381195 1.00679 -0.495782
0.339177 1.00293 -0.507766
0.19861 1.14036 -0.596786
-1.29689 -2.7441 -1.58431
-1.26984 -2.73218 -1.57132
-1.28095 -2.76115 -1.5853
-1.25789 -2.74523 -1.57232
-1.24289 -2.74627 -1.56832
0.455073 -1.09747 -0.494747
0.338497 -1.25812 -0.584626
0.267658 -1.49494 -0.691481
0.353077 -1.37819 -0.62557
0.392256 -1.32831 -0.596609
0.41736 -1.29939 -0.579632
0.473635 -1.22255 -0.535691
0.495729 -1.19662 -0.520712
0.495715 -1.20062 -0.521709
0.45948 -1.26652 -0.555664
0.430291 -1.31943 -0.583627
0.342766 -1.46617 -0.661522
-0.954712 -3.55836 -1.78101
-0.94675 -3.56939 -1.78401
-0.823832 -3.5958 -1.76504
-0.692077 -3.66824 -1.76405
-0.697154 -3.69023 -1.77404
-0.673096 -3.67431 -1.76205
-0.638253 -3.71943 -1.77304
-0.614188 -3.7015 -1.76106
-0.42151 -3.79716 -1.76108
-0.411545 -3.80719 -1.76408
-0.402587 -3.81922 -1.76708
-0.392625 -3.83026 -1.77007
-0.384671 -3.84329 -1.77407
-0.375656 -3.83932 -1.77007
-0.351573 -3.81639 -1.75609
-0.334668 -3.84345 -1.76509
-0.328738 -3.86348 -1.77208
-0.309695 -3.85154 -1.76409
-0.291665 -3.8436 -1.7571
-0.248709 -3.85674 -1.75611
-0.19277 -3.87493 -1.75412
-0.180787 -3.87997 -1.75412
-0.0759088 -3.91632 -1.75314
-0.0699827 -3.93735 -1.76113
0.0419761 -3.95072 -1.75116
0.0439232 -3.96573 -1.75716
0.0589381 -3.96178 -1.75317
0.0729387 -3.96183 -1.75117
0.0839071 -3.97087 -1.75417
0.0918508 -3.9869 -1.76016
0.106862 -3.98394 -1.75617
0.120877 -3.97999 -1.75318
0.550525 -4.08445 -1.75428
0.566579 -4.0695 -1.74629
0.578565 -4.07354 -1.74629
0.589519 -4.08658 -1.75129
0.605569 -4.07263 -1.7443
0.616523 -4.08567 -1.7493
0.629516 -4.08771 -1.7493
1.15734 -4.1395 -1.74946
1.16437 -4.13252 -1.74647
1.17743 -4.11656 -1.73848
1.19043 -4.1146 -1.73748
1.20337 -4.13365 -1.74648
1.21637 -4.1337 -1.74648
1.22945 -4.10973 -1.7355
1.27439 -4.12689 -1.74251
1.28741 -4.11993 -1.73951
1.49947 -4.10565 -1.7356
1.51248 -4.10269 -1.7346
1.62147 -4.10306 -1.73764
1.63546 -4.10611 -1.73964
1.64651 -4.09415 -1.73465
1.6624 -4.12321 -1.74864
1.90764 -4.05603 -1.73176
1.91965 -4.05207 -1.73077
1.93057 -4.07611 -1.74176
1.94355 -4.07916 -1.74476
2.16581 -4.0059 -1.73088
2.24588 -3.98417 -1.72892
2.26382 -4.00224 -1.73892
2.88046 -3.81333 -1.74523
2.87958 -3.77831 -1.73024
2.8916 -3.77336 -1.73025
2.93564 -3.76251 -1.73327
3.05773 -3.73292 -1.74433
3.07272 -3.73598 -1.74833
3.08176 -3.72501 -1.74634
3.08976 -3.72603 -1.74734
3.10674 -3.73109 -1.75335
3.10684 -3.70309 -1.74236
3.12084 -3.70014 -1.74337
3.12988 -3.69017 -1.74138
3.13891 -3.6812 -1.73938
3.14398 -3.66221 -1.73239
3.31533 -3.55979 -1.72851
3.32933 -3.55784 -1.73151
3.34432 -3.55989 -1.73552
3.35734 -3.55593 -1.73752
3.36439 -3.54196 -1.73253
3.37545 -3.52299 -1.72855
3.39144 -3.52605 -1.73255
3.41349 -3.51212 -1.73256
3.42849 -3.51217 -1.73657
3.47966 -3.46034 -1.72861
3.53076 -3.43252 -1.73065
3.54575 -3.43357 -1.73465
3.59486 -3.40274 -1.73568
3.61583 -3.40981 -1.74369
3.61093 -3.38079 -1.7317
3.62096 -3.37182 -1.73071
3.63796 -3.37288 -1.73571
3.65296 -3.37293 -1.73972
3.66995 -3.37499 -1.74472
3.67401 -3.35801 -1.73973
3.67504 -3.34901 -1.73674
3.68607 -3.34104 -1.73675
3.69311 -3.32907 -1.73375
3.70612 -3.32511 -1.73576
3.72809 -3.33319 -1.74476
3.73513 -3.32121 -1.74277
3.74416 -3.31224 -1.74178
3.74221 -3.29823 -1.73579
3.75721 -3.29729 -1.73979
3.76326 -3.28431 -1.7368
3.77229 -3.27534 -1.73581
3.77535 -3.25734 -1.72982
3.81741 -3.23849 -1.73484
3.82844 -3.23153 -1.73585
3.86535 -3.25666 -1.75485
3.87836 -3.25271 -1.75786
3.87843 -3.2317 -1.74987
3.88547 -3.21972 -1.74788
3.89845 -3.22477 -1.75288
3.90948 -3.21781 -1.75389
3.8976 -3.18376 -1.7379
3.92562 -3.17686 -1.74391
3.92569 -3.15786 -1.73792
3.92676 -3.13786 -1.73093
3.75522 -2.72417 -1.53808
3.76723 -2.72122 -1.54009
3.78631 -2.69828 -1.5391
2.8402 -1.04065 -0.71561
5.12409 -1.56091 -1.75315
5.13717 -1.53795 -1.75416
5.14221 -1.52597 -1.75417
-1.07099 -3.34496 -1.77308
-1.06604 -3.35898 -1.77708
-1.04111 -3.38107 -1.77907
-1.03214 -3.3901 -1.78007
-1.01111 -3.38216 -1.77108
-1.00114 -3.3912 -1.77208
-0.989156 -3.39524 -1.77008
-0.979184 -3.40327 -1.77108
-0.979222 -3.41427 -1.77508
-0.961211 -3.41133 -1.77009
-0.957273 -3.42935 -1.77508
-0.917299 -3.43748 -1.76909
-0.912354 -3.4535 -1.77408
-0.846451 -3.48272 -1.76909
-0.834549 -3.51077 -1.77708
-0.832584 -3.52077 -1.78108
-0.81054 -3.50884 -1.77009
-0.809625 -3.53285 -1.78008
-0.799652 -3.54089 -1.78108
-0.777608 -3.52896 -1.77009
-0.739689 -3.55308 -1.77109
-0.723681 -3.55114 -1.7671
-0.711698 -3.55618 -1.7661
-0.713797 -3.58418 -1.77809
-0.697789 -3.58223 -1.77409
-0.677755 -3.57329 -1.7651
-0.674784 -3.5813 -1.7681
-0.659779 -3.58035 -1.76411
-0.649806 -3.58839 -1.76511
-0.64588 -3.6094 -1.7731
-0.632886 -3.61145 -1.7711
-0.44416 -3.69308 -1.76512
-0.442199 -3.70409 -1.77012
-0.437262 -3.72211 -1.77611
-0.421246 -3.71816 -1.77112
-0.405235 -3.71522 -1.76713
-0.398287 -3.73024 -1.77212
-0.386304 -3.73528 -1.77212
-0.378346 -3.74731 -1.77512
-0.381428 -3.77031 -1.78611
-0.37348 -3.78534 -1.7911
-0.353433 -3.7724 -1.78112
-0.325315 -3.73948 -1.76214
-0.3103 -3.73553 -1.75815
-0.309413 -3.76754 -1.77113
-0.297423 -3.77058 -1.77014
-0.235419 -3.77079 -1.75916
-0.23454 -3.8048 -1.77414
-0.222553 -3.80884 -1.77414
-0.215549 -3.80786 -1.77215
-0.196502 -3.79492 -1.76316
-0.181487 -3.79097 -1.75917
-0.181611 -3.82598 -1.77415
-0.170642 -3.83501 -1.77615
-0.158652 -3.83805 -1.77515
-0.141627 -3.83111 -1.77016
-0.125601 -3.82416 -1.76417
-0.123651 -3.83817 -1.77016
-0.102579 -3.81824 -1.75818
-0.0936171 -3.82927 -1.76118
-0.0786093 -3.82732 -1.75818
-0.0656121 -3.82836 -1.75619
-0.0406285 -3.83344 -1.7542
-0.0297166 -3.85849 -1.76419
-0.0116733 -3.84654 -1.7562
-0.000701176 -3.85458 -1.7582
0.00320696 -3.8806 -1.76919
0.0192289 -3.87465 -1.7642
0.0362722 -3.8627 -1.75621
0.0452902 -3.85773 -1.75321
0.122187 -3.888 -1.75522
0.333039 -3.93271 -1.74928
0.346029 -3.93575 -1.74928
0.353962 -3.95478 -1.75727
0.367966 -3.95383 -1.75528
0.370917 -3.96784 -1.76127
0.384931 -3.96389 -1.75828
0.396921 -3.96693 -1.75828
0.409911 -3.96997 -1.75828
0.437943 -3.96106 -1.7513
0.450947 -3.96011 -1.7493
0.454912 -3.97012 -1.7533
0.459784 -4.00615 -1.77028
0.478881 -3.9792 -1.7553
0.50792 -3.9683 -1.74832
0.518889 -3.97734 -1.75132
0.529868 -3.98337 -1.75332
0.54184 -3.99142 -1.75532
0.546822 -3.99643 -1.75732
0.561854 -3.98748 -1.75233
0.595774 -4.0106 -1.75933
0.606724 -4.02464 -1.76532
0.62176 -4.01469 -1.75934
0.627767 -4.01271 -1.75834
0.641775 -4.01076 -1.75634
0.655814 -3.9998 -1.75035
0.668811 -4.00084 -1.74936
0.680793 -4.00588 -1.75136
0.68868 -4.03792 -1.76535
0.708836 -3.99398 -1.74338
0.821806 -4.00336 -1.74141
0.844739 -4.02244 -1.74841
0.857728 -4.02548 -1.74941
0.87075 -4.01953 -1.74642
0.882711 -4.03057 -1.75042
0.888711 -4.03059 -1.75042
1.13462 -4.05742 -1.75449
1.14759 -4.06647 -1.75949
1.15957 -4.07251 -1.76149
1.17255 -4.07656 -1.7635
1.18454 -4.0806 -1.7645
1.19866 -4.04664 -1.74852
1.21163 -4.05568 -1.75352
1.21768 -4.0417 -1.74653
1.23064 -4.05075 -1.75053
1.24258 -4.06779 -1.75853
1.25558 -4.06783 -1.75853
1.53878 -4.01278 -1.73666
1.55364 -4.05184 -1.75464
1.55778 -4.01385 -1.73766
1.57171 -4.0329 -1.74666
1.58279 -4.00993 -1.73667
1.59675 -4.02198 -1.74267
1.60876 -4.01902 -1.74168
1.6208 -4.00706 -1.73669
1.63472 -4.02811 -1.74668
1.64554 -4.08016 -1.77066
1.65471 -4.03218 -1.74869
1.66482 -4.00021 -1.73471
2.26319 -3.89223 -1.73297
2.29216 -3.90233 -1.73998
2.30417 -3.89937 -1.73998
2.30721 -3.88738 -1.73499
2.31825 -3.87642 -1.732
2.35921 -3.88656 -1.74101
2.36728 -3.86758 -1.73302
2.38323 -3.87964 -1.74102
2.38628 -3.86565 -1.73503
2.40028 -3.8677 -1.73803
2.41936 -3.84476 -1.73005
2.59729 -3.86238 -1.7631
2.61029 -3.86042 -1.76411
2.61537 -3.83743 -1.75412
2.63135 -3.84349 -1.76012
2.63933 -3.84852 -1.76312
2.65036 -3.84055 -1.76113
2.66139 -3.83259 -1.76014
2.67538 -3.83564 -1.76314
2.68244 -3.81766 -1.75615
2.68753 -3.79267 -1.74617
2.70449 -3.80373 -1.75417
2.7165 -3.79877 -1.75418
2.71855 -3.78678 -1.74918
2.73354 -3.78883 -1.75219
2.73564 -3.76083 -1.7402
2.74964 -3.76088 -1.74321
2.76561 -3.76794 -1.74921
2.78456 -3.78101 -1.75721
2.79162 -3.76403 -1.75122
2.79664 -3.76004 -1.75022
2.79675 -3.72704 -1.73624
2.81274 -3.73009 -1.74024
2.82773 -3.73415 -1.74425
2.84272 -3.7372 -1.74925
2.8458 -3.7122 -1.73827
2.85881 -3.71125 -1.74027
2.85787 -3.69224 -1.73228
2.89986 -3.69539 -1.74129
2.9099 -3.68542 -1.7383
2.92587 -3.69148 -1.7443
2.93987 -3.69153 -1.74731
2.93794 -3.67252 -1.73832
2.9559 -3.68258 -1.74632
2.97387 -3.69064 -1.75332
2.97795 -3.66865 -1.74433
2.99492 -3.67671 -1.75134
3.01091 -3.67877 -1.75534
3.0259 -3.68182 -1.76034
3.02298 -3.65981 -1.74935
3.02606 -3.63782 -1.74137
3.0341 -3.62584 -1.73837
3.04512 -3.61888 -1.73738
3.05912 -3.61793 -1.73939
3.09099 -3.65605 -1.76238
3.0891 -3.62303 -1.7484
3.10906 -3.6351 -1.7574
3.12401 -3.65016 -1.76639
3.12609 -3.62716 -1.75741
3.13215 -3.61018 -1.75142
3.13324 -3.58418 -1.74143
3.13533 -3.55918 -1.73144
3.14733 -3.55722 -1.73345
3.30763 -3.47076 -1.73355
3.32759 -3.47984 -1.74255
3.33663 -3.46986 -1.74056
3.36057 -3.48595 -1.75256
3.36463 -3.46796 -1.74657
3.36174 -3.43795 -1.73358
3.36878 -3.42597 -1.73059
3.38175 -3.43502 -1.73759
3.4168 -3.41914 -1.73961
3.42086 -3.40215 -1.73362
3.45396 -3.37226 -1.73065
3.492 -3.36139 -1.73567
3.50103 -3.35242 -1.73468
3.51801 -3.35648 -1.74068
3.51909 -3.33448 -1.73269
3.55012 -3.32458 -1.73671
3.55915 -3.31561 -1.73571
3.56918 -3.30665 -1.73472
3.58716 -3.31171 -1.74173
3.5952 -3.30174 -1.73973
3.62118 -3.30583 -1.74874
3.63021 -3.29686 -1.74775
3.64223 -3.2909 -1.74876
3.63335 -3.25686 -1.73377
3.65141 -3.23892 -1.73179
3.71452 -3.20814 -1.73782
3.72852 -3.20619 -1.74083
