-17.1317 -8.94452 1.27325
-18.3676 -10.0856 1.27793
-19.3763 -10.5849 1.00967
-18.2507 -10.0843 1.26462
-20.1368 -10.335 0.562468
-19.3739 -10.5947 0.876014
-16.5119 -8.87079 1.30816
-16.3609 -8.96342 1.29425
-20.2015 -10.307 0.0699521
-16.3467 -8.95801 1.0788
-18.5059 -10.0813 0.543249
-16.0463 -9.04957 1.1053
-16.3534 -8.94603 0.893191
-16.3394 -8.98702 0.891163
-19.2538 -10.6545 0.185611
-19.2586 -10.6483 0.206738
-18.349 -10.0723 0.395008
-19.4605 -10.5194 0.0257964
-17.9044 -10.2586 0.575702
-17.9578 -10.2626 0.528395
-16.0168 -9.05529 0.984039
-19.5048 -10.5465 -0.41589
-17.326 -10.4745 0.542457
-20.3596 -10.2865 -1.03982
-19.0645 -10.683 -0.366826
-16.869 -10.5792 0.350434
-20.3283 -10.2425 -1.52415
-19.9023 -10.4342 -1.34273
-20.5416 -10.2789 -1.85009
-19.4902 -10.6115 -1.34533
-19.3441 -10.613 -1.30376
-20.2635 -10.3051 -1.91316
-17.1029 -10.8072 -0.272327
-16.6045 -10.8567 -0.394725
-18.5902 -10.8763 -1.40884
-18.4988 -10.8737 -1.33255
-16.0433 -11.2285 -0.0798026
-18.5343 -10.8938 -1.42292
-17.0996 -10.8464 -0.710745
-16.508 -10.8069 -0.41988
-16.0191 -11.2277 -0.25531
-16.5322 -11.0604 -0.668571
-17.2316 -10.6506 -1.33184
-16.0726 -11.1869 -0.704367
-18.5727 -10.8973 -2.12382
-17.8331 -10.6288 -1.97986
-17.6063 -10.8398 -1.83687
-18.3813 -10.9554 -2.39697
-16.602 -11.0412 -1.72664
-16.8046 -10.9197 -1.88002
-16.3998 -11.0914 -1.67049
-17.9808 -11.1224 -2.59178
-17.9408 -11.1124 -2.57998
-15.3945 -11.5711 -1.22936
-16.7631 -10.9192 -1.97864
-17.1891 -10.6324 -2.42621
-16.3198 -11.0894 -1.93629
-16.6945 -10.8463 -2.51275
-15.0318 -12.078 -1.87875
-19.518 -10.3706 1.50195
-19.3346 -10.4402 1.45696
-19.3305 -10.5539 1.41553
-16.8222 -8.72735 1.34646
-17.1678 -8.96677 1.24395
-20.2317 -10.3199 0.509439
-19.3653 -10.5843 0.815942
-20.0418 -10.378 -0.123693
-19.1838 -10.6627 -0.159781
-20.4801 -10.178 -1.14101
-19.2275 -10.6503 -0.484476
-19.2495 -10.6151 -0.865672
-19.3203 -10.6453 -1.11934
-19.8126 -10.4265 -1.34621
-17.7358 -10.8183 -0.591541
-19.6892 -10.478 -1.67896
-17.7674 -10.845 -0.790939
-17.1548 -10.8574 -0.552197
-18.5233 -10.8924 -1.34023
-16.3964 -10.7583 -0.278915
-18.4611 -10.9166 -1.34233
-16.0485 -11.2346 -0.0783755
-18.5388 -10.8568 -1.44626
-16.0246 -11.193 -0.207355
-15.9245 -11.2071 -0.231268
-17.0315 -10.8549 -1.04338
-17.2249 -10.6403 -1.32828
-15.5726 -11.5314 -0.5195
-15.8741 -11.2575 -0.726977
-18.9879 -10.7705 -2.56486
-16.1944 -11.0192 -1.31356
-16.1319 -10.9854 -1.24859
-16.4735 -11.0546 -1.66432
-17.522 -10.6691 -2.41671
-16.0341 -11.0369 -1.98405
-15.9814 -11.0304 -2.0504
-16.0056 -11.0302 -2.04428
-15.9606 -10.975 -2.24774
-16.2508 -10.9886 -2.54348
-15.1817 -11.3623 -2.1041
-15.6027 -10.9174 -2.93329
-14.4403 -12.2527 -3.44238
-20.2557 -10.3027 0.745386
-18.4389 -10.0767 1.1982
-19.4607 -10.5405 0.911527
-17.0151 -8.84537 1.18512
-19.4051 -10.6059 0.883492
-18.5346 -10.0428 0.972388
-20.1474 -10.3458 0.295246
-19.3534 -10.5628 0.590952
-19.2879 -10.6332 0.292837
-18.442 -10.0723 0.37178
-19.3792 -10.6078 0.111436
-20.3718 -10.3143 -1.08325
-20.3146 -10.3042 -1.00534
-17.2868 -10.8324 0.0318174
-16.9189 -10.9065 -0.111611
-16.6317 -10.8405 -0.238921
-17.1068 -10.8514 -0.512899
-17.2639 -10.7862 -0.769549
-16.6439 -10.9339 -0.477017
-20.1494 -10.3914 -2.5569
-15.9331 -11.278 -0.691161
-16.1395 -11.1176 -1.04411
-16.7784 -10.9691 -1.56313
-16.4502 -11.051 -1.75356
-17.0412 -10.6985 -2.15886
-15.9891 -11.0354 -2.09314
-15.9885 -11.0215 -2.11344
-19.5089 -10.5542 0.864484
-18.4064 -10.2825 -0.749866
-17.0437 -10.8513 -0.0573513
-16.5451 -10.75 -0.25769
-16.0972 -11.1549 -0.156775
-17.1288 -10.8554 -0.977955
-15.9285 -11.2193 -0.499739
-17.7813 -10.6205 -1.55353
-19.4217 -10.6144 -2.50115
-16.5725 -11.0176 -1.33945
-16.1193 -11.0157 -1.3652
-16.2805 -11.1376 -1.82737
-15.9321 -11.0192 -2.19939
-15.1937 -11.3554 -2.11971
-16.4175 -8.89943 1.12598
-16.3651 -8.96653 1.04991
-19.255 -10.6662 0.190817
-18.2575 -10.1486 0.277476
-19.355 -10.6127 -0.841661
-18.5001 -10.3762 -0.523203
-20.0504 -10.3732 -1.35658
-16.0971 -11.1558 -0.735105
-17.5183 -10.9286 -1.51994
-18.9248 -10.8068 -2.58837
-16.2299 -11.1167 -1.45019
-16.8113 -10.9366 -1.97073
-17.1369 -10.6516 -2.47942
-19.3888 -10.6124 0.358345
-18.4245 -10.4869 -0.755581
-16.8005 -10.8916 -0.1717
-16.1764 -11.1682 -1.44432
-17.2839 -10.7289 -2.32372
-19.325 -10.6204 -0.426349
-15.5914 -11.529 -0.855341
-16.9085 -10.8526 -1.59823
-16.5638 -10.9653 -2.0481
-18.5976 -9.97378 1.22021
-19.1336 -10.6361 -0.545719
-17.3289 -10.7431 -2.21021
-18.6833 -9.9857 1.42262
-18.5485 -10.4522 -0.0506546
-19.4249 -10.6212 -0.616074
-17.3864 -10.8413 -0.0732195
-17.7969 -10.6461 -1.44075
-15.9156 -11.0601 -1.94607
-17.4392 -9.16011 1.41802
-16.6274 -8.70205 1.53684
-17.0625 -10.9205 -0.115408
-15.1564 -11.4663 -2.49218
-14.8805 -12.1095 -2.90538
-17.9059 -11.0693 -2.88698
-18.1038 -11.0909 -2.78585
-18.2708 -11.0091 -2.69677
-20.0769 -10.3662 -2.58504
-18.6074 -10.8576 -2.53505
-18.6089 -10.8667 -2.54407
-16.9888 -10.6846 -2.18964
-20.1188 -10.3925 -2.25408
-19.1555 -10.749 -2.15837
-20.1859 -10.3466 -2.17466
-19.7199 -10.5306 -2.20316
-18.8969 -10.8015 -2.13916
-19.4287 -10.6129 -2.0648
-18.9222 -10.8007 -2.02143
-18.7456 -10.7868 -1.96318
-18.5942 -10.8614 -1.94914
-18.8836 -10.7571 -1.88907
-20.0784 -10.4103 -1.9279
-19.2443 -10.6333 -1.91153
-19.2749 -10.6265 -1.8705
-19.4225 -10.5963 -1.83459
-20.2541 -10.2846 -1.61016
-19.4864 -10.5883 -1.61717
-20.3164 -10.2496 -1.62048
-20.3977 -10.3165 -1.6491
-18.3069 -10.9467 -1.60105
-20.3195 -10.2919 -1.48552
-17.9095 -10.7189 -1.36169
-18.5018 -10.8753 -1.32056
-19.0154 -10.7609 -1.34063
-18.5574 -10.8974 -1.30296
-20.39 -10.2661 -1.33621
-18.6981 -10.8482 -1.3198
-19.0347 -10.6968 -1.21779
-20.28 -10.2881 -1.07914
-17.0462 -10.8732 -0.986851
-19.6808 -10.5154 -1.05273
-20.1057 -10.3676 -1.0158
-19.1135 -10.6648 -0.874387
-17.7201 -10.8078 -0.646865
-17.162 -10.8682 -0.607236
-19.9265 -10.457 -0.644681
-19.8063 -10.4253 -0.554865
-17.7291 -10.7427 -0.479602
-17.7402 -10.717 -0.472823
-19.8309 -10.4444 -0.561779
-19.8995 -10.4376 -0.352529
-19.1814 -10.6763 -0.293106
-19.2632 -10.6298 -0.281107
-19.4527 -10.556 -0.300598
-16.7341 -10.8245 -0.212266
-20.2961 -10.3186 -0.239918
-20.2768 -10.3295 -0.0969968
-19.2412 -10.6444 0.0229321
-19.7543 -10.5141 0.0988135
-19.7041 -10.4887 0.140452
-19.1913 -10.6898 0.15553
-19.6181 -10.4773 0.169598
-19.9458 -10.4138 0.221431
-19.2812 -10.6293 0.218978
-19.9739 -10.4206 0.227272
-19.9033 -10.3954 0.23689
-20.3909 -10.2261 0.33902
-20.4359 -10.2386 0.345522
-17.1433 -10.5466 0.400243
-19.6145 -10.5394 0.450904
-16.2838 -10.8357 0.499718
-20.1722 -10.304 0.56617
-19.5228 -10.5124 0.621669
-20.4673 -10.2376 0.831543
-20.2251 -10.2783 0.858369
-19.9294 -10.3654 1.07768
-19.7349 -10.436 1.05924
-18.2523 -10.1418 1.01788
-18.2412 -10.0913 1.04195
-15.5565 -9.2196 0.925233
-20.3707 -10.2271 1.23074
-19.8458 -10.4376 1.41685
-19.287 -10.4999 1.47507
-14.8031 -12.1389 -3.22077
-18.0466 -11.069 -2.91076
-17.8995 -11.0913 -2.86822
-16.5968 -10.8606 -2.61265
-16.9414 -10.743 -2.55464
-16.6862 -10.8704 -2.56284
-16.4754 -10.9252 -2.54523
-14.8438 -12.0759 -2.73278
-18.3438 -11.0087 -2.57301
-19.4238 -10.6277 -2.54953
-18.0098 -11.0865 -2.56079
-19.5523 -10.6129 -2.59299
-19.2753 -10.6523 -2.5685
-19.4868 -10.5771 -2.46336
-17.0197 -10.6417 -2.17242
-18.7137 -10.8586 -2.33474
-16.6259 -10.9714 -2.20772
-20.1648 -10.3541 -2.26294
-20.1875 -10.3046 -2.25864
-20.2535 -10.3494 -2.19509
-19.0346 -10.728 -2.08003
-19.5791 -10.5626 -2.08653
-15.3267 -11.4558 -1.93631
-19.5975 -10.4939 -2.01353
-19.0095 -10.7295 -2.05466
-19.4527 -10.6309 -1.97816
-19.0721 -10.7608 -1.87741
-19.1326 -10.7334 -1.91981
-19.218 -10.6848 -1.8939
-15.4921 -11.5617 -1.7805
-19.7118 -10.5004 -1.79115
-17.6837 -10.7838 -1.65638
-18.2698 -10.9796 -1.65348
-18.8842 -10.7664 -1.63864
-19.2526 -10.716 -1.62289
-19.261 -10.6471 -1.46861
-20.2009 -10.3112 -1.45613
-18.6775 -10.839 -1.31655
-18.729 -10.837 -1.30004
-20.0108 -10.4005 -1.18349
-18.0488 -10.7006 -1.10546
-19.5947 -10.5029 -0.93291
-19.9724 -10.4499 -0.868894
-17.2168 -10.8575 -0.718044
-20.0193 -10.4172 -0.727892
-17.4393 -10.9277 -0.614669
-16.5866 -11.043 -0.571666
-17.7097 -10.7194 -0.487123
-17.7305 -10.7483 -0.459986
-19.5676 -10.5169 -0.435683
-16.5092 -10.7223 -0.279054
-19.5776 -10.5065 -0.351813
-19.3815 -10.5752 -0.335065
-16.1963 -10.9779 -0.182241
-17.095 -10.8555 -0.222693
-16.8852 -10.9037 -0.209098
-16.815 -10.8631 -0.209798
-17.2511 -10.8438 -0.170509
-18.5219 -10.4359 -0.0910864
-18.186 -10.7003 -0.109379
-19.5535 -10.5848 -0.0667543
-18.0688 -10.773 -0.0790609
-18.1526 -10.709 -0.0847427
-20.1484 -10.3609 -0.123252
-20.2053 -10.3279 -0.0856484
-19.6488 -10.5076 0.0912117
-20.3066 -10.313 0.0623648
-19.6437 -10.5132 0.132605
-19.8224 -10.41 0.150885
-20.3071 -10.26 0.163512
-20.0131 -10.3597 0.176952
-19.4477 -10.5819 0.458833
-20.0795 -10.33 0.438344
-17.5149 -10.4336 0.485075
-19.5532 -10.5564 0.604602
-16.1548 -10.8299 0.608253
-19.6109 -10.5096 0.602429
-19.5608 -10.5199 0.629938
-19.5558 -10.5106 0.874297
-19.5115 -10.5823 0.843685
-19.5259 -10.5566 0.92535
-19.6665 -10.5078 0.857989
-19.8221 -10.3963 0.893938
-19.731 -10.4789 0.913298
-20.2918 -10.2989 0.919483
-18.5945 -9.97695 1.041
-20.0688 -10.3848 1.19645
-16.3763 -8.97369 0.947648
-15.8798 -9.08085 1.01222
-16.7262 -8.81485 1.03598
-15.9558 -9.08746 1.06152
-19.3057 -10.48 1.45143
-15.9959 -9.01879 1.17051
-16.8124 -8.68743 1.42241
-16.8445 -8.70885 1.47167
-16.2818 -10.9747 -2.53578
-19.4532 -10.6223 -2.50977
-16.9756 -10.718 -2.2547
-19.9645 -10.4328 -2.41502
-15.8722 -10.9987 -2.21715
-17.0128 -10.7017 -2.17942
-20.1814 -10.372 -2.17792
-16.679 -10.9362 -1.97046
-19.5846 -10.5134 -1.96905
-15.3997 -11.4872 -1.70123
-20.0082 -10.3915 -1.70194
-18.9959 -10.778 -1.66183
-20.0745 -10.3816 -1.64075
-16.1974 -11.1954 -1.42218
-20.3932 -10.2727 -1.34893
-17.1848 -10.7855 -1.07077
-15.9428 -11.2195 -0.970821
-17.786 -10.8207 -0.940635
-20.2357 -10.3294 -1.00136
-15.9489 -11.219 -0.788411
-17.139 -10.7932 -0.755378
-16.0188 -11.2365 -0.727985
-16.9782 -10.8969 -0.729821
-17.456 -10.9656 -0.613991
-20.0582 -10.3951 -0.699265
-18.0198 -10.7381 -0.424932
-16.531 -10.7305 -0.296779
-19.795 -10.5057 -0.352564
-19.8106 -10.4698 -0.231077
-17.1836 -10.8618 -0.218688
-16.3083 -10.8981 -0.195468
-17.1034 -10.8649 -0.220564
-16.7935 -10.8652 -0.144207
-19.914 -10.4011 -0.163558
-17.1018 -10.8443 -0.0841569
-18.5293 -10.3977 -0.0902887
-19.6341 -10.5167 0.0269128
-19.6098 -10.5392 0.0350788
-19.7448 -10.4835 0.0835491
-19.297 -10.6535 0.168003
-19.2871 -10.6225 0.246474
-16.9993 -10.7034 0.264686
-20.0011 -10.3826 0.261722
-19.6568 -10.5101 0.268962
-19.9293 -10.3865 0.24458
-17.1071 -10.5253 0.363365
-20.1655 -10.3322 0.429997
-19.9554 -10.3826 0.438652
-17.9819 -10.2467 0.484441
-17.9579 -10.2926 0.52672
-20.274 -10.2594 0.697438
-19.9563 -10.3995 0.855261
-20.0504 -10.3784 1.15923
-19.4322 -10.5881 1.19999
-19.3413 -10.4331 1.47831
-19.5464 -10.3628 1.54915
-16.9259 -8.87839 1.16877
-18.6487 -9.88449 1.5844
-16.7941 -8.69895 1.45718
-19.3548 -10.6055 -2.49811
-15.9468 -11.0602 -2.09481
-18.5664 -10.9088 -2.13063
-20.2839 -10.3106 -1.88619
-16.6261 -10.9895 -1.70607
-16.7009 -11.0286 -1.69972
-18.4924 -10.953 -1.55471
-16.2018 -11.0315 -1.27843
-19.1736 -10.6749 -1.33544
-19.2633 -10.6563 -1.29406
-19.8761 -10.4464 -1.27615
-15.9075 -11.2038 -1.02625
-20.0736 -10.4102 -0.998011
-19.368 -10.5708 -0.930882
-20.0663 -10.3975 -0.926713
-19.3087 -10.6078 -0.853537
-15.5462 -11.5816 -0.804624
-17.7969 -10.8106 -0.588376
-15.9275 -11.2263 -0.593987
-17.025 -10.8693 -0.524578
-19.0187 -10.7211 -0.334639
-16.8762 -10.9492 -0.165137
-17.0628 -10.8748 -0.0566606
-19.8208 -10.4583 0.138857
-19.433 -10.6343 0.0981809
-19.2966 -10.5951 0.199566
-20.1397 -10.3336 0.301923
-19.716 -10.5062 0.43594
-16.6953 -10.6817 0.517482
-20.0584 -10.3602 0.860305
-20.3113 -10.2924 1.18465
-19.7745 -10.4435 1.22526
-18.274 -10.1226 1.28438
-18.427 -10.0774 1.32658
-18.3451 -10.068 1.3824
-16.055 -9.01406 1.13725
-18.2201 -10.989 -2.54651
-16.8682 -10.7155 -2.24116
-15.9628 -11.0065 -2.14885
-18.7859 -10.8129 -2.24162
-20.0467 -10.4114 -0.903456
-19.2277 -10.6402 -0.417529
-19.6747 -10.5172 -0.314957
-16.5975 -10.8683 -0.19079
-18.5864 -10.3481 -0.0120975
-19.3414 -10.5915 0.0522693
-17.4695 -10.3983 0.527588
-19.6995 -10.4727 0.604084
-19.4796 -10.5672 0.668629
-18.5673 -10.011 0.850281
-18.3114 -10.0837 1.28028
-17.2163 -10.6159 -2.33448
-18.757 -10.88 -2.41428
-15.9626 -11.0114 -2.15114
-18.3182 -10.9756 -1.85896
-15.4068 -11.5761 -1.4207
-15.5338 -11.5734 -1.03425
-19.2904 -10.6558 -0.772733
-19.662 -10.5024 0.979659
-18.3178 -10.125 0.98395
-19.5568 -10.3504 1.49634
-18.5828 -10.8811 -2.55869
-17.7124 -10.7285 -1.86712
-16.5828 -11.0755 -1.92258
-19.2596 -10.579 -0.685453
-18.1724 -10.7031 -0.203015
-16.6432 -10.6867 0.388815
-16.9254 -10.6168 0.340407
-19.8599 -10.4097 0.713013
-14.4219 -12.2877 -3.29028
-16.7993 -10.8928 -0.260598
-19.5047 -10.5713 -0.259624
-18.586 -10.3763 -0.0418678
-15.7703 -11.1845 -2.56718
-16.2504 -11.0717 -1.7242
-15.614 -11.5108 -0.838724
-19.1165 -10.6408 -0.555346
-16.1143 -11.0315 -1.94542
-17.1217 -10.8787 -0.179192
-19.4829 -10.5254 -0.0488166
-16.7593 -8.77272 0.886789
-16.7998 -11.0683 -0.646267
-20.1322 -10.3554 -2.26573
-20.008 -10.3967 -1.84953
-20.1386 -10.3572 -1.61676
-18.4544 -10.9584 -2.82965
-18.6866 -10.8734 -2.45623
-19.4334 -10.5866 -1.70753
-17.898 -11.084 -2.88796
-18.8632 -10.7946 -2.11461
-17.9106 -11.0992 -2.82466
-19.082 -10.7716 -1.92356
-18.8911 -10.7536 -2.00792
-18.8654 -10.7951 -1.92635
-18.7893 -10.7914 -1.9486
-20.4671 -10.2282 -0.189664
-20.5492 -10.2356 -0.0791321
-18.5533 -10.9042 -1.51714
-18.706 -10.8249 -1.35104
-18.5885 -10.8657 -1.33781
-18.496 -10.8722 -1.33133
-17.1429 -10.6494 -1.99679
-19.9836 -10.3904 0.0588822
-19.9172 -10.3416 0.176784
-19.969 -10.338 0.183069
-19.9254 -10.3968 0.275042
-19.1294 -10.6567 -0.390132
-19.0838 -10.6912 -0.341737
-20.2154 -10.3074 0.558705
-19.7293 -10.5157 0.132316
-16.0589 -10.9768 -2.2299
-16.0854 -10.982 -2.21343
-16.0264 -10.9514 -2.19641
-19.7674 -10.4488 0.634728
-16.046 -10.9853 -1.91793
-18.426 -10.4247 -0.0987049
-15.1301 -12.0086 -2.75293
-19.5642 -10.5285 0.667057
-18.5617 -10.0808 0.36969
-19.3763 -10.594 0.80274
-18.4676 -10.0894 0.488135
-18.46 -10.0781 0.527835
-19.6895 -10.4832 1.06476
-18.2367 -10.1523 0.352833
-19.5508 -10.4976 1.06594
-16.7589 -10.9692 -0.856078
-18.0811 -10.1908 0.50651
-17.6558 -10.3205 0.363352
-17.6498 -10.3268 0.378232
-18.2932 -10.0864 1.10295
-18.23 -10.1391 1.12928
-16.0798 -11.1636 -0.455095
-16.9947 -10.5842 0.408172
-16.0178 -11.2082 -0.207236
-16.4149 -10.7646 0.403393
-15.8532 -11.2492 -0.0248642
-16.7545 -8.81781 1.14367
-15.7476 -10.9415 0.341127
-16.8562 -8.66971 1.62559
-16.3742 -8.80873 1.6738
-20.0358 -10.4108 -2.6236
-20.0059 -10.4207 -1.91032
-20.5345 -10.2355 -1.31693
-20.4843 -10.2459 -1.09187
-19.0646 -10.7294 -2.17894
-18.626 -10.8887 -2.51176
-17.9453 -11.1115 -2.90216
-19.4804 -10.5693 -1.60128
-20.0709 -10.4057 -1.15187
-19.0341 -10.744 -1.96421
-17.1997 -10.6226 -2.23928
-16.9458 -10.7208 -2.24919
-18.6487 -10.874 -1.31932
-17.0299 -10.7154 -2.2098
-18.513 -10.9164 -1.30989
-18.4951 -10.8827 -1.37446
-20.4281 -10.2486 0.429924
-19.7451 -10.4465 -0.0256273
-19.5456 -10.5652 -0.177436
-19.233 -10.6158 -0.383901
-19.2055 -10.6766 -0.294523
-19.9008 -10.3941 0.390376
-20.0431 -10.3368 0.611715
-17.9312 -10.7901 -0.809186
-19.1981 -10.6309 0.117669
-14.9877 -12.0674 -3.01714
-19.3054 -10.6005 0.242989
-19.7083 -10.4603 0.679488
-18.4194 -10.3912 -0.127959
-16.6253 -11.1542 -1.42384
-20.1062 -10.3603 1.20784
-14.6389 -12.1997 -2.8876
-18.154 -10.7307 -0.0833474
-17.1372 -10.8588 -0.71424
-17.1396 -10.8451 -0.621167
-17.1426 -10.8213 -0.608605
-18.0898 -10.2526 0.292083
-17.0098 -10.8446 -0.49811
-16.0682 -11.1447 -1.06517
-17.1751 -10.8433 -0.180192
-17.8688 -10.2755 0.472204
-15.9441 -11.2393 -1.06653
-16.5155 -10.7888 -0.400014
-16.7548 -10.8341 -0.227698
-16.0318 -11.1911 -0.759218
-18.305 -10.1092 1.11908
-18.2185 -10.0791 1.16536
-16.4038 -10.8425 -0.236862
-18.2187 -10.144 1.22697
-17.0534 -10.5196 0.410741
-17.2481 -8.99267 1.01848
-15.9849 -11.1987 -0.186784
-16.5225 -10.6837 0.316633
-15.5337 -11.4684 -0.527068
-15.8695 -11.2506 -0.191332
-16.3521 -10.746 0.273695
-16.9483 -8.82135 1.04721
-16.3184 -8.96675 0.904509
-15.7945 -10.9605 0.321953
-16.3706 -8.91422 1.06307
-16.8077 -8.71845 1.45406
-16.3197 -8.92447 1.14295
-16.4882 -8.87383 1.30393
-16.3744 -8.90298 1.24338
-15.9276 -9.04396 1.11609
-20.2748 -10.3338 -1.89579
-19.8831 -10.4764 -2.19569
-19.6337 -10.5463 -1.66716
-18.7381 -10.8526 -2.34344
-18.7664 -10.8229 -2.2032
-18.7935 -10.8468 -2.12107
-20.0319 -10.3975 -0.953848
-20.0747 -10.3709 -0.944764
-19.3934 -10.6256 -1.35191
-17.0971 -10.6118 -2.41453
-17.1521 -10.6728 -2.36614
-20.2587 -10.3225 -0.321965
-19.2683 -10.6278 -1.07042
-18.5581 -10.8892 -1.561
-18.2631 -11.0019 -1.69375
-19.7681 -10.452 -0.357105
-20.4979 -10.1579 0.421613
-19.0771 -10.7329 -0.687462
-20.0137 -10.3666 0.0846588
-19.6812 -10.4352 -0.0978733
-19.2986 -10.6314 -0.337078
-19.9584 -10.4221 0.25977
-19.247 -10.6841 -0.0955031
-20.2694 -10.2666 0.780281
-15.8462 -11.0524 -2.27492
-16.6498 -11.0316 -1.72752
-15.8392 -11.0537 -2.24455
-15.8217 -11.0938 -2.258
-16.2115 -11.1905 -2.01383
-19.2124 -10.6622 0.18509
-19.5753 -10.5218 0.562154
-14.421 -12.2299 -3.39772
-17.0434 -10.8385 -1.05747
-17.0233 -10.8605 -1.02565
-19.8702 -10.4224 1.01241
-17.0591 -10.8563 -0.901397
-19.2915 -10.5583 0.839337
-16.1147 -11.1686 -1.36492
-17.5263 -10.9091 -0.159037
-16.0716 -11.1556 -1.07227
-19.3258 -10.5957 1.30152
-16.5249 -11.0385 -0.612442
-17.3573 -10.7013 0.126604
-15.9204 -11.2153 -0.867667
-16.6021 -10.8419 -0.183743
-16.5542 -10.8059 -0.195449
-16.4944 -10.7332 -0.22278
-16.5562 -10.8424 -0.150597
-17.4006 -10.3979 0.506414
-18.2421 -10.1105 1.2613
-15.7915 -11.2542 -0.211726
-17.1574 -8.94212 1.29675
-15.8184 -10.9427 0.375146
-15.9154 -9.05828 1.08333
-15.9536 -9.07438 1.22942
-20.3224 -10.3112 -2.16104
-19.1657 -10.7219 -2.51243
-18.7347 -10.8737 -1.88549
-17.0228 -10.672 -2.17574
-19.1342 -10.7263 -0.788013
-19.9381 -10.3736 0.266119
-17.228 -10.6275 -1.27271
-19.2779 -10.6008 0.0766345
-15.9017 -11.0463 -2.20089
-16.0283 -11.0374 -2.04247
-15.945 -11.1052 -2.07587
-18.0721 -10.7667 -0.426951
-17.2132 -10.8279 -0.995627
-17.0813 -10.8013 -1.05807
-17.9585 -10.7773 -0.476373
-14.8355 -12.109 -2.87579
-18.4525 -10.0897 0.445577
-19.3762 -10.5879 0.84329
-16.2129 -11.0279 -1.30007
-16.0985 -10.9968 -1.28302
-17.2751 -10.7202 0.087786
-15.8296 -11.2488 -1.01713
-16.9298 -10.9104 -0.126008
-17.3398 -10.5687 0.231734
-17.015 -10.7146 0.274126
-18.2278 -10.1393 1.21921
-17.3101 -9.08305 1.17244
-16.972 -8.83301 1.18274
-16.5329 -8.87837 0.894459
-18.4955 -10.9362 -2.74335
-20.1077 -10.3745 -1.0414
-17.8284 -10.6189 -2.10743
-18.3091 -10.9996 -1.61783
-16.953 -10.7307 -2.11773
-19.0411 -10.7083 -0.142706
-15.5335 -11.3616 -2.40314
-16.5137 -11.0834 -1.70051
-18.589 -10.3614 0.0300403
-15.2463 -11.3208 -2.20062
-17.0732 -10.872 -0.869172
-16.7296 -10.9826 -1.09632
-15.2697 -11.3985 -2.02906
-17.1629 -10.8364 -0.585167
-17.4726 -10.9044 -0.133685
-18.3985 -10.0701 0.858
-17.1675 -10.8294 -0.0409028
-18.3659 -10.0899 1.03788
-16.3227 -10.9634 -0.46072
-15.9891 -11.2053 -0.598513
-15.8975 -11.2655 -0.547702
-15.9136 -11.2673 -0.463901
-17.1566 -10.6224 -2.47281
-17.1349 -10.6951 -2.13914
-16.7588 -10.9716 -1.87413
-15.7276 -11.0543 -2.22556
-19.4467 -10.5642 0.632698
-20.1497 -10.3291 1.27772
-18.1357 -10.2127 0.459245
-18.2722 -10.0958 0.991913
-20.3389 -10.3005 -1.29176
-19.3727 -10.6017 -0.239715
-18.4961 -10.3751 -0.114507
-18.1993 -10.1787 0.377196
-18.0229 -10.1948 0.478339
-16.7944 -11.0641 -0.44618
-17.3734 -10.6641 0.213313
-18.3629 -10.062 0.982258
-17.4689 -10.4065 0.490939
-15.6064 -11.4841 -0.702119
-16.5798 -10.7406 0.377882
-15.6166 -11.5262 -0.451544
-17.8146 -10.6625 -1.5024
-18.5897 -10.359 -0.0359098
-19.3739 -10.5634 0.356974
-18.6233 -10.1685 0.285672
-16.8926 -10.9443 -0.212249
-16.8045 -10.8434 -0.218639
-18.605 -10.014 1.16082
-15.5717 -11.5306 -0.82669
-17.9951 -11.074 -2.64662
-20.1603 -10.3373 -0.0240203
-19.1203 -10.6628 -0.39741
-19.4787 -10.5137 0.694508
-16.2601 -11.1653 -1.34647
-16.7391 -8.78247 0.905701
-18.7471 -10.4337 0.0217439
-16.8865 -10.7297 -2.44028
-18.3068 -10.7462 -1.08584
-16.6528 -10.7554 -1.7289
-20.0389 -10.3875 -0.970632
-20.2021 -10.2889 -0.0228894
-20.0125 -10.378 0.0875911
-19.9567 -10.3765 0.190763
-19.7564 -10.4869 -0.416611
-19.1396 -10.7144 -2.4138
-19.0204 -10.7231 -2.18425
-19.6182 -10.4903 -0.0630643
-19.0485 -10.7702 -2.04854
-19.0499 -10.7385 -1.98712
-18.9155 -10.7713 -1.92546
-18.5926 -10.882 -2.44753
-19.3499 -10.5726 0.759182
-19.379 -10.6044 0.812223
-18.5939 -10.3514 -0.559953
-18.5313 -10.8889 -1.52069
-17.8012 -10.4073 -2.18822
-18.495 -10.0837 0.522676
-17.9233 -11.0653 -2.82047
-18.4921 -10.0873 0.494791
-17.955 -11.1341 -2.56794
-18.3439 -10.1155 0.383948
-18.2804 -10.6103 -0.486175
-18.2387 -10.6046 -0.486471
-18.0346 -10.6855 -1.08554
-18.2409 -10.1227 0.36079
-18.273 -10.1568 0.349325
-17.9442 -10.7363 -1.33497
-17.8954 -10.7436 -1.34027
-18.2523 -10.1175 1.22384
-17.8425 -10.281 0.478322
-17.6543 -10.3852 0.383371
-17.6442 -10.3786 0.378022
-17.2897 -10.6966 0.074742
-16.8534 -8.68183 1.44972
-17.1395 -10.8226 -0.252475
-17.0385 -10.5771 0.378286
-16.6029 -8.83525 1.14009
-16.0626 -10.9609 -2.24641
-16.511 -11.1367 -0.93698
-16.3537 -8.92469 0.953443
-16.4312 -11.1113 -0.827295
-15.5425 -10.9857 -2.88084
-16.4218 -10.7784 0.411505
-16.3933 -10.7901 0.356694
-16.0814 -9.01833 1.09574
-15.5828 -11.3789 -2.26564
-15.9577 -11.2192 -1.03234
-15.9555 -9.03327 1.10086
-15.8874 -9.08458 1.1547
-15.479 -11.5371 -1.56462
-15.0851 -12.0337 -2.95368
-15.1132 -12.0314 -2.79248
-15.5071 -11.5346 -1.40384
-15.1371 -11.3013 -2.14388
-15.0033 -12.079 -3.06455
-15.6464 -9.18349 0.946254
-14.7274 -12.1988 -3.19346
-20.1892 -10.3549 -2.2378
-20.0297 -10.3797 -1.79697
-19.7802 -10.4898 -2.25242
-19.5135 -10.5903 -2.62464
-19.7214 -10.518 -1.81409
-19.8066 -10.4769 -1.67617
-19.6181 -10.5555 -2.01011
-19.9606 -10.4188 -0.327841
-19.4328 -10.6098 -1.69556
-19.133 -10.7273 -2.37479
-19.1621 -10.6867 -2.22593
-19.0346 -10.7442 -2.21311
-19.3216 -10.6495 -0.736344
-19.0097 -10.7463 -1.39007
-18.7589 -10.8443 -2.20853
-18.7232 -10.8395 -1.80329
-19.0691 -10.7508 -0.715982
-19.2602 -10.6624 0.0177358
-19.2167 -10.6629 0.268968
-18.6653 -10.8824 -1.31261
-18.6441 -10.2278 0.0860763
-18.5321 -10.897 -1.36527
-18.3695 -10.1018 1.0347
-18.1519 -10.1721 0.463095
-18.0709 -10.1978 0.493226
-18.3579 -10.1129 1.27548
-18.0707 -10.2065 0.497345
-18.2571 -10.102 1.11352
-18.242 -10.1412 1.31733
-17.1662 -10.615 -2.34366
-17.6994 -10.7243 -0.509199
-17.0641 -10.675 -1.92785
-16.9707 -10.6956 -2.22806
-17.6607 -10.3473 0.416597
-17.4238 -10.9597 -0.636092
-17.1428 -10.845 -0.823363
-17.0482 -10.8459 -1.00986
-17.1488 -10.8703 -0.772184
-16.7425 -10.933 -2.00425
-17.1066 -10.8207 -0.726701
-16.98 -10.8839 -0.772964
-16.9846 -10.8872 -0.52452
-16.646 -11.1671 -1.4183
-16.9801 -10.9174 -0.180971
-16.6642 -11.0217 -1.14854
-16.9078 -10.7435 0.142009
-16.7709 -10.851 -0.20937
-16.0334 -10.9859 -2.27423
-16.4098 -8.95567 0.934377
-16.5063 -8.87912 1.31118
-16.5916 -10.7964 -0.362547
-16.5445 -11.0425 -0.587268
-15.96 -11.0728 -2.16156
-16.3282 -8.95913 1.11599
-16.5074 -10.7071 0.292274
-16.3351 -8.8538 1.6064
-15.5639 -11.3661 -2.27256
-16.0626 -11.188 -0.473281
-15.8349 -11.2608 -0.721517
-15.8404 -11.2474 -0.269117
-20.1782 -10.3346 -1.52683
-20.1758 -10.3621 -1.47946
-19.9875 -10.3733 0.357234
-19.6539 -10.5418 0.0220231
-19.3605 -10.6484 -0.854972
-19.1405 -10.6762 -0.881173
-19.2796 -10.6123 0.0231162
-19.1833 -10.6581 -0.128562
-19.197 -10.6373 0.0233282
-19.1939 -10.6675 0.126406
-19.342 -10.5793 0.839703
-18.3207 -10.9492 -2.45463
-18.5613 -10.3473 -0.0517833
-18.6811 -9.98555 1.37738
-17.5135 -10.682 -2.41888
-17.6777 -10.7916 -1.87586
-17.1527 -10.6004 -2.45371
-17.8786 -10.2799 0.397355
-17.0072 -10.6709 -2.19204
-17.8167 -10.8117 -0.194159
-17.3081 -10.6088 -1.30199
-16.9315 -10.7362 -2.19144
-17.0622 -10.855 -1.04674
-17.0743 -10.8645 -0.87623
-16.7498 -10.944 -1.94358
-16.6244 -11.027 -1.89364
-16.6074 -11.1915 -1.45973
-16.3875 -8.92086 0.929722
-16.2117 -11.1438 -1.7052
-16.0008 -11.0297 -2.04866
-15.9955 -11.0678 -2.10944
-15.8565 -11.0397 -2.13772
-16.0985 -11.0973 -1.11101
-16.1215 -11.1654 -0.982882
-15.1633 -11.3204 -2.13785
-15.483 -11.5486 -1.1584
-14.7031 -12.1691 -2.70693
-20.4481 -10.2239 0.898184
-19.3464 -10.6311 -1.0442
-19.4675 -10.5967 -0.626232
-18.7159 -10.8391 -2.32431
-19.3839 -10.581 0.818405
-19.0382 -10.6889 -0.15869
-18.6109 -10.353 -0.00210411
-18.4302 -10.0773 0.399001
-18.3896 -10.088 0.853321
-18.5001 -10.0239 1.20972
-17.1073 -10.7038 -2.14367
-17.2252 -10.7859 -0.695745
-16.9876 -10.7155 0.202394
-16.9986 -10.707 0.216105
-16.9881 -10.6806 0.249829
-16.8613 -10.856 -0.210005
-16.1562 -11.1033 -2.01316
-15.9527 -11.0527 -2.19577
-16.1007 -11.0966 -1.10346
-15.5174 -11.5137 -0.610653
-20.5363 -10.1825 -1.67772
-20.3102 -10.2857 -2.2163
-20.095 -10.3764 -0.924314
-20.0193 -10.3921 -0.99696
-19.897 -10.4039 -1.40006
-20.3036 -10.2976 0.923007
-20.0135 -10.3773 0.277124
-19.41 -10.5766 -0.617226
-18.5486 -10.9121 -1.34735
-18.6333 -10.0066 0.528814
-18.4577 -10.0607 0.339664
-17.1745 -10.8485 -0.980486
-17.1383 -10.8619 -0.776469
-16.9799 -10.867 -0.237906
-16.5478 -11.0063 -0.611996
-16.095 -11.1613 -0.937089
-16.0674 -11.1678 -0.742342
-15.8659 -11.2317 -0.968718
-15.2223 -11.3383 -2.19996
-15.5156 -11.5588 -0.930548
-19.2955 -10.6101 0.311026
-17.9472 -11.0893 -2.64674
-17.7486 -10.8778 -1.07092
-17.8879 -10.7808 -0.372031
-16.876 -10.7313 -2.22041
-16.8126 -10.7572 -2.26886
-17.2819 -10.7859 -0.709201
-17.0752 -10.8604 -1.00074
-16.8638 -10.9262 -1.50451
-17.1901 -10.8289 -0.485153
-17.1274 -10.8861 -0.631676
-16.6467 -11.0423 -1.65979
-16.9146 -10.8755 -0.116384
-16.3694 -8.92239 1.08549
-15.991 -11.2012 -0.98717
-15.8846 -11.2446 -0.112086
-17.8075 -10.6468 -1.95987
-17.0265 -10.6572 -2.19119
-16.508 -11.0582 -1.30698
-14.4061 -12.2386 -3.4255
-20.283 -10.3442 -2.22952
-16.6952 -10.9946 -1.71076
-16.7855 -10.9239 -0.292817
-16.1687 -11.143 -0.762272
-18.595 -9.99755 0.594325
-18.608 -10.365 -0.0434189
-18.6734 -10.0037 1.27921
-16.9061 -10.7001 -2.16351
-16.9043 -8.81921 1.19716
-15.7707 -8.87005 1.62997
-18.4717 -10.544 -0.43226
-16.9269 -8.69759 1.52505
-19.1171 -10.6432 -0.62514
-17.0486 -10.7233 -1.94655
-16.9509 -10.7748 -1.9092
-20.4422 -10.1886 0.862174
-20.2291 -10.3098 -0.0532054
-19.9844 -10.3979 0.199093
-19.3426 -10.5593 0.755347
-20.0291 -10.4337 -1.85418
-19.258 -10.6436 0.00474058
-18.5729 -10.012 0.467335
-18.631 -10.0397 0.328435
-18.5201 -10.0444 0.505555
-19.1286 -10.7188 -0.305321
-18.1118 -10.1813 0.397988
-19.3194 -10.6237 -2.55399
-19.1569 -10.7226 -2.19672
-17.7525 -10.3442 0.535796
-18.894 -10.7888 -1.87751
-17.7236 -10.3385 0.371769
-18.8656 -10.7759 -2.12989
-18.9038 -10.8026 -2.61121
-18.8381 -10.8135 -2.58
-18.8992 -10.8334 -2.56799
-18.6355 -10.841 -2.4373
-17.7022 -10.7519 -0.491305
-18.3783 -10.9602 -2.57592
-18.3634 -10.9461 -2.57861
-17.6931 -10.8087 -1.41873
-17.7274 -10.7852 -1.43155
-17.6947 -10.8079 -1.39657
-17.7716 -10.4136 -2.18019
-17.7144 -10.8251 -1.64176
-16.0071 -9.09108 1.18278
-15.9384 -9.06454 1.17094
-17.1254 -10.8502 -0.0520312
-17.0742 -10.8346 -0.0491406
-17.1559 -10.8491 -0.474507
-16.6268 -10.6655 0.547838
-16.7449 -10.8361 -0.207887
-16.7179 -10.9719 -0.830024
-16.5094 -11.1148 -0.937968
-16.2713 -10.9842 -0.221834
-15.5357 -11.5381 -1.60491
-14.873 -12.1251 -2.99509
-20.4475 -10.2676 -1.12469
-19.9029 -10.3924 0.261597
-19.8771 -10.4323 -1.04631
-19.3754 -10.6158 -0.801377
-19.2422 -10.6351 -0.397262
-19.1005 -10.6739 -0.348623
-18.2971 -10.1014 0.396739
-16.8414 -8.67647 1.62735
-19.4566 -10.57 -2.54147
-19.194 -10.6922 -2.47246
-16.7883 -8.83802 1.2624
-19.1635 -10.6983 -2.4337
-18.9136 -10.8179 -2.0138
-18.0764 -10.7139 -0.122566
-18.7006 -10.8276 -1.86045
-18.7969 -10.8398 -2.34139
-18.7597 -10.8225 -2.32895
-18.6975 -10.8289 -2.19628
-18.6156 -10.8997 -2.44636
-18.069 -10.7506 -0.979061
-17.7966 -10.7969 -0.229908
-16.3621 -8.91065 1.15149
-16.2974 -8.97851 1.24456
-18.4937 -10.919 -2.58383
-18.4459 -10.9544 -2.54793
-18.4883 -10.8918 -2.71188
-18.4698 -10.9276 -2.75341
-16.2611 -8.96131 0.927332
-17.3332 -10.6603 0.0991064
-17.5962 -10.8825 -0.819168
-16.0496 -9.0482 1.04917
-17.6666 -10.8446 -1.41527
-15.9555 -9.08194 1.25565
-17.6761 -10.7831 -1.69554
-15.9487 -9.05321 0.950553
-17.2094 -10.8312 -0.762245
-17.9041 -11.1154 -2.88137
-16.9728 -10.9046 -0.493231
-15.6714 -9.17754 0.89995
-15.5223 -9.20387 0.959215
-17.0231 -10.6378 -2.26805
-16.3594 -10.8822 -0.1924
-15.804 -10.9193 0.353599
-16.0721 -10.9688 -2.24731
-15.4966 -11.5317 -1.62958
-15.481 -11.5229 -1.69145
-14.8591 -12.0977 -2.90043
-14.6868 -12.1552 -3.11664
-14.5386 -12.1983 -3.27449
-20.2977 -10.2829 0.873379
-20.3053 -10.2681 0.750369
-20.0954 -10.3451 -0.752978
-19.5547 -10.5612 -0.101753
-19.5436 -10.535 -0.450444
-19.642 -10.5168 -1.01358
-19.8929 -10.4387 -2.08262
-19.8792 -10.3878 -2.18576
-19.4236 -10.6259 -1.69461
-19.4334 -10.6132 -1.75261
-19.0268 -10.7153 -1.56632
-19.0437 -10.7792 -1.91932
-17.7466 -10.3128 0.328859
-18.8691 -10.8193 -2.05623
-18.6353 -10.8268 -2.51805
-16.3064 -8.98071 1.25701
-16.402 -8.93687 0.903527
-17.8045 -10.8415 -0.786121
-16.0944 -9.02711 1.09443
-15.9723 -9.0766 1.13272
-15.9763 -9.05845 1.05591
-17.2442 -10.7716 -1.00784
-16.6514 -10.7902 -0.188811
-16.6061 -10.8195 -0.126391
-17.1409 -10.6432 -2.17337
-17.1299 -10.662 -2.24754
-16.4954 -10.7891 -0.436303
-17.0302 -10.6427 -2.17479
-16.6353 -11.1833 -1.44201
-16.71 -10.9532 -1.9999
-16.6253 -11.0459 -1.83187
-16.3851 -11.0743 -1.6388
-15.8997 -11.2591 -0.116229
-16.4178 -10.9209 -2.61893
-15.6041 -11.5561 -0.461226
-15.4397 -11.5561 -0.625989
-15.463 -11.6111 -0.761938
-15.2634 -11.4109 -1.49497
-19.4105 -10.5179 1.44428
-20.0804 -10.3776 -0.977791
-20.1503 -10.3328 -1.34704
-20.0055 -10.397 -1.05108
-20.1805 -10.3238 -1.61051
-20.285 -10.3345 -2.3767
-19.8331 -10.4537 -1.0753
-18.715 -9.97023 0.584477
-19.6039 -10.5653 -1.00249
-18.5708 -10.0793 0.509909
-19.7303 -10.4869 -1.83252
-18.4999 -10.0811 0.502384
-18.3504 -10.0664 0.830167
-19.0296 -10.6746 -0.19254
-19.4129 -10.6255 -1.66561
-18.1544 -10.1727 0.408814
-19.0945 -10.7218 -1.90599
-18.6135 -10.8967 -1.39236
-18.5391 -10.851 -1.34856
-18.5413 -10.87 -1.41677
-18.5102 -10.9122 -1.39373
-17.6487 -10.8424 -0.424081
-17.2473 -10.7399 0.0756987
-17.7719 -10.5663 -2.18895
-16.9793 -10.6734 0.234556
-17.2267 -10.8191 -0.494355
-17.0456 -10.8673 -0.0177574
-17.0331 -10.9056 -0.212985
-17.225 -10.825 -0.964876
-16.9958 -10.8723 -0.178603
-16.9332 -10.9065 -0.168024
-17.0267 -10.861 -0.558894
-17.0383 -10.8764 -0.543716
-17.1777 -10.7731 -2.13765
-16.9528 -10.6709 -2.19569
-16.0626 -11.1709 -0.74112
-15.8431 -11.2543 -0.194181
-16.2587 -11.1277 -1.52433
-16.0541 -11.1371 -1.15279
-15.8529 -11.2348 -0.693558
-15.997 -11.0317 -2.1904
-20.2439 -10.2872 0.727637
-19.6307 -10.5107 -0.0122299
-20.0323 -10.4005 -1.61337
-19.4821 -10.5278 -0.181553
-18.4944 -9.99525 1.16813
-18.4858 -10.0405 1.26589
-18.4616 -10.0658 1.0854
-19.204 -10.6752 0.236004
-19.2002 -10.6884 -0.480681
-18.303 -10.127 0.426966
-18.4074 -10.401 -0.0893251
-18.1939 -10.68 -0.101127
-18.1524 -10.6614 -0.283782
-18.9847 -10.7805 -2.48575
-16.3801 -8.93792 1.0095
-17.1671 -10.8543 -0.0710159
-17.1541 -10.8767 -0.169325
-17.716 -10.556 -2.16506
-17.1472 -10.8229 -0.326842
-17.1652 -10.8218 -0.59223
-16.8856 -10.8394 -0.122834
-16.9793 -10.8922 -0.248947
-16.7374 -10.9902 -1.9424
-16.5666 -10.999 -1.23869
-16.464 -11.1205 -0.970965
-15.9927 -11.1922 -0.246719
-16.1618 -11.1896 -1.01884
-16.0672 -11.1895 -0.913756
-15.8698 -11.2778 -0.978166
-19.6498 -10.5388 -0.310119
-19.8204 -10.4861 -1.16666
-18.5773 -10.4151 -0.536295
-17.1917 -10.872 -0.388875
-17.2059 -10.856 -1.02505
-16.8084 -10.7772 -2.28453
-16.1607 -11.1464 -0.430035
-16.1779 -11.1444 -1.70749
-15.5398 -11.5443 -1.09222
-15.28 -11.4042 -2.1045
-14.7063 -12.1931 -2.93627
-19.8699 -10.4388 0.701748
-19.492 -10.5948 -0.552512
-18.6607 -10.0073 0.504704
-19.0934 -10.7364 -2.12513
-16.5643 -11.008 -1.81963
-15.9982 -11.0057 -2.29946
-15.8481 -10.9941 -2.23975
-14.469 -12.2348 -3.24378
-16.971 -10.6736 -2.1906
-16.6706 -11.0037 -1.98945
-15.2564 -11.3845 -2.10396
-17.8138 -10.2824 0.387361
-17.8419 -10.8238 -0.410473
-16.9444 -10.8599 -0.0422164
-16.9275 -10.9288 -1.08414
-16.5202 -11.0427 -1.24354
-18.5445 -10.4434 -0.27842
-18.4822 -10.4427 -0.00969373
-15.9789 -11.0273 -2.39903
-20.592 -10.141 0.829911
-20.5366 -10.1714 0.446847
-20.3576 -10.3238 0.437847
-19.5827 -10.5816 0.844436
-19.9564 -10.412 0.377322
-18.3489 -10.0998 1.11273
-19.9151 -10.4174 0.26065
-18.2649 -10.1367 1.08591
-20.1103 -10.3081 -0.0295412
-19.4927 -10.5793 0.417694
-19.6882 -10.4824 0.119731
-19.7725 -10.4728 -0.0604078
-19.6961 -10.4658 -0.0556566
-19.6508 -10.5365 -0.0451829
-20.2221 -10.3312 -0.656702
-19.4836 -10.6128 -0.105622
-18.3563 -10.1124 0.38068
-16.3769 -8.92717 1.00437
-18.1063 -10.2037 0.455404
-20.4715 -10.2723 -1.09373
-19.7802 -10.4697 -0.593177
-20.1825 -10.3538 -0.973959
-19.7577 -10.4507 -0.646485
-16.0003 -9.03027 1.17601
-15.9963 -9.04957 1.15721
-20.0534 -10.3779 -1.00061
-19.2046 -10.6493 -0.352406
-19.9342 -10.4307 -1.02168
-19.9822 -10.4475 -1.02363
-17.7641 -10.3359 0.358754
-17.7141 -10.3301 0.339928
-20.2414 -10.2775 -1.34736
-19.7375 -10.4553 -1.08704
-20.4634 -10.2009 -1.6404
-19.3891 -10.6152 -0.847991
-19.8387 -10.4733 -1.27903
-19.8806 -10.4593 -1.27717
-18.1638 -10.6899 -0.101725
-18.1791 -10.6967 -0.124176
-18.44 -10.5441 -0.396128
-20.1609 -10.3408 -1.7105
-20.0071 -10.3922 -1.63784
-18.2862 -10.6146 -0.472376
-19.4938 -10.6 -1.33789
-19.9805 -10.4027 -1.84434
-20.4938 -10.2743 -2.22657
-20.0134 -10.3624 -1.92687
-19.4467 -10.5678 -1.62645
-19.7116 -10.502 -1.85473
-20.1311 -10.3997 -2.19745
-19.9335 -10.4353 -2.06296
-20.2608 -10.2901 -2.35211
-17.7226 -10.7402 -0.5017
-19.4153 -10.6225 -1.66534
-17.6809 -10.7269 -0.474973
-20.0809 -10.3295 -2.27694
-20.269 -10.3181 -2.45303
-19.4849 -10.6141 -1.83719
-18.7354 -10.7981 -1.26914
-19.4386 -10.6094 -1.85678
-18.7258 -10.819 -1.3099
-16.1363 -10.827 0.50469
-16.091 -10.8506 0.507192
-17.0299 -10.8644 -0.148432
-19.6305 -10.5656 -2.17167
-16.7246 -10.8204 -0.209557
-19.7828 -10.5064 -2.58296
-18.9095 -10.7895 -1.92559
-19.0641 -10.7546 -2.00723
-17.2177 -10.8463 -0.736334
-18.7514 -10.8487 -1.79531
-17.2224 -10.8044 -0.773038
-18.9067 -10.8154 -1.9885
-18.8654 -10.766 -1.99447
-19.0378 -10.7309 -2.19867
-17.8863 -10.7458 -1.32654
-19.4954 -10.6229 -2.52325
-19.5248 -10.6241 -2.55617
-18.2701 -10.966 -1.61878
-18.8677 -10.8163 -2.10093
-16.2431 -10.9705 -0.243762
-19.3294 -10.6542 -2.57019
-17.7527 -10.8239 -1.37495
-17.7227 -10.8693 -1.38225
-17.6929 -10.8029 -1.4052
-18.7269 -10.8311 -2.20999
-18.7235 -10.8324 -2.24391
-18.6471 -10.9059 -2.16234
-18.5921 -10.866 -2.1453
-18.8849 -10.8264 -2.58083
-18.4517 -10.9093 -2.57
-16.6873 -10.9726 -1.29395
-16.5868 -10.9997 -1.25674
-18.3669 -10.9539 -2.54587
-18.4031 -10.9375 -2.61328
-16.639 -10.988 -1.31421
-18.316 -10.9933 -2.65991
-18.3359 -10.9751 -2.76975
-17.1057 -10.6957 -2.1994
-17.9033 -11.1293 -2.8586
-15.4547 -11.5339 -1.35793
-15.4674 -11.5886 -1.3328
-15.5263 -11.5754 -1.61811
-15.5588 -11.5281 -1.66413
-15.8691 -10.9967 -2.24676
-15.896 -11.1111 -2.58121
-15.1852 -11.9954 -2.52245
-20.4861 -10.1975 0.853828
-20.2944 -10.3052 0.991495
-19.3341 -10.4894 1.46639
-20.0093 -10.3365 1.00457
-19.9907 -10.3358 0.886297
-20.0648 -10.3516 0.892668
-19.7293 -10.4436 0.654511
-19.5912 -10.5003 0.614805
-19.3893 -10.6087 0.754539
-17.4123 -9.08571 0.990517
-19.939 -10.3926 0.199539
-19.684 -10.5136 0.114332
-16.7248 -8.81773 1.02355
-16.2969 -8.94233 1.28579
-16.3207 -8.96093 1.2184
-19.8316 -10.4276 -0.259937
-19.3655 -10.6251 0.0587293
-16.3976 -8.94355 1.13679
-19.2888 -10.6525 0.0340006
-19.2244 -10.6594 0.00689168
-16.4964 -8.89293 0.901233
-20.1189 -10.3756 -0.787595
-16.3856 -8.93791 0.948793
-18.0856 -10.2281 0.300708
-15.9252 -9.04556 1.18408
-15.9549 -9.05818 1.15899
-20.0221 -10.349 -0.956865
-15.9331 -9.05754 1.16557
-19.2058 -10.6759 -0.326485
-15.9633 -9.066 1.04248
-18.4189 -10.4106 -0.0456329
-15.8649 -9.12869 1.06901
-20.5219 -10.2511 -1.70452
-20.4743 -10.224 -1.6434
-20.2737 -10.352 -1.5045
-19.9724 -10.429 -1.26357
-19.9467 -10.4023 -1.25431
-20.3374 -10.272 -1.59349
-17.2379 -10.5247 0.467515
-18.4411 -10.5725 -0.326005
-19.7485 -10.4383 -1.33931
-19.3032 -10.6619 -1.08354
-19.5266 -10.5507 -1.33098
-17.7891 -10.8099 -0.203811
-18.2131 -10.6309 -0.575444
-17.9706 -10.7871 -0.389032
-19.5911 -10.5188 -1.64468
-20.4417 -10.2711 -2.34577
-19.0301 -10.6841 -1.35012
-17.706 -10.7589 -0.438196
-18.0944 -10.7003 -0.773926
-19.2974 -10.6331 -1.61092
-17.7468 -10.7554 -0.553862
-19.4646 -10.5963 -1.85559
-18.6049 -10.8559 -1.29695
-19.7033 -10.4945 -2.22326
-18.0373 -10.693 -1.07966
-19.5748 -10.5305 -2.19443
-19.2145 -10.6624 -1.91365
-17.4308 -10.9351 -0.595712
-17.4639 -10.9756 -0.638073
-16.8188 -10.878 -0.208593
-17.7455 -10.8701 -0.865396
-16.771 -10.863 -0.209641
-15.8794 -10.9722 0.43718
-18.5906 -10.8878 -1.57477
-19.0366 -10.735 -1.96185
-17.0674 -10.8199 -0.611449
-16.5673 -10.7944 -0.285917
-17.1863 -10.8221 -0.71458
-19.0314 -10.7201 -2.09671
-19.5079 -10.5574 -2.5183
-17.1495 -10.874 -0.780689
-19.5 -10.6217 -2.52779
-19.5317 -10.5916 -2.61466
-17.1525 -10.8653 -0.819974
-19.116 -10.6998 -2.36661
-19.1728 -10.7186 -2.41638
-19.0963 -10.732 -2.43247
-19.222 -10.7078 -2.57488
-18.7019 -10.8137 -2.19196
-15.8876 -11.2134 -0.236584
-17.7146 -10.7679 -1.61727
-18.693 -10.808 -2.36409
-18.5939 -10.8602 -2.35435
-18.8688 -10.7766 -2.57845
-16.4823 -11.104 -0.964001
-17.1212 -10.6416 -2.26608
-17.9692 -11.1081 -2.88209
-17.9602 -11.0984 -2.87796
-17.046 -10.666 -2.22548
-16.9618 -10.7282 -2.20164
-16.0088 -10.986 -2.0033
-15.9776 -10.9994 -2.0153
-15.4888 -11.5339 -1.62313
-15.5553 -11.5226 -1.87625
-15.1947 -12.0117 -2.8234
-14.8215 -12.0762 -3.26545
-14.7184 -12.1543 -3.15505
-20.203 -10.3354 0.726691
-20.1008 -10.3655 0.578947
-19.349 -10.5216 1.02677
-18.3577 -10.0612 1.25434
-20.3995 -10.2441 0.0663261
-17.1569 -8.96259 1.23274
-19.5707 -10.5123 0.626345
-19.9901 -10.3634 0.321725
-19.5799 -10.4827 -0.0386255
-16.3058 -8.95853 1.26002
-19.238 -10.6275 0.0385286
-16.3865 -8.92645 1.07407
-17.9261 -10.2694 0.501215
-18.1154 -10.2219 0.358301
-15.9586 -9.02921 1.13638
-20.0979 -10.3656 -1.08093
-19.3867 -10.5842 -0.640082
-19.6353 -10.5566 -0.938346
-19.2884 -10.617 -0.751751
-16.9129 -10.4655 0.628903
-17.1341 -10.528 0.314213
-16.9309 -10.6461 0.24183
-19.8916 -10.4401 -1.93478
-19.7068 -10.5642 -1.76591
-20.2148 -10.3515 -2.21612
-17.9065 -10.759 -0.571632
-19.3309 -10.5792 -1.62676
-19.6199 -10.53 -1.8996
-19.9169 -10.4252 -2.10145
-16.9762 -10.8865 -0.259555
-20.1068 -10.3886 -2.56695
-18.5452 -10.882 -1.45457
-19.0066 -10.7436 -1.94282
-18.5458 -10.9069 -1.56737
-19.1976 -10.7078 -2.23925
-19.0464 -10.733 -2.24897
-16.5017 -10.7504 -0.415131
-17.2216 -10.7962 -1.00521
-17.1028 -10.821 -1.00635
-17.5438 -10.882 -1.39635
-17.5697 -10.8584 -1.38046
-15.9211 -11.2541 -0.168344
-18.7845 -10.8313 -2.39277
-18.5135 -10.9029 -2.55093
-15.5615 -11.586 -0.606295
-16.0669 -11.1754 -1.05822
-16.0919 -11.1708 -1.07676
-15.5651 -11.5368 -0.767794
-15.9623 -11.2206 -1.05732
-16.2192 -11.0166 -1.359
-17.1335 -10.6762 -2.07402
-16.1945 -11.0185 -1.31589
-16.7127 -10.9562 -2.018
-17.0972 -10.6614 -2.57525
-15.4965 -11.53 -1.4739
-16.8528 -10.7455 -2.58682
-15.9482 -11.0153 -2.11484
-16.0855 -10.9391 -2.17317
-15.9959 -10.9675 -2.17035
-16.087 -11.0233 -2.64689
-15.6263 -11.3157 -2.53396
-20.2023 -10.2981 0.94074
-20.2774 -10.2615 0.798859
-19.7332 -10.4216 0.434399
-19.6922 -10.5063 0.263828
-19.6834 -10.487 0.182004
-16.4736 -8.89275 1.24983
-18.5369 -10.0962 0.511843
-16.3341 -8.92958 1.24283
-19.4431 -10.6032 0.146748
-16.3075 -8.97306 1.24718
-17.9857 -10.2265 0.496183
-18.1406 -10.1914 0.425319
-20.4843 -10.2552 -1.12198
-19.5184 -10.5505 -0.373891
-19.0624 -10.7019 -0.352698
-20.1356 -10.3682 -1.32279
-17.5395 -10.4126 0.346231
-19.912 -10.4097 -1.28757
-19.8757 -10.4337 -1.33051
-18.3508 -10.6303 -0.269607
-20.3097 -10.2749 -1.86293
-16.9904 -10.6768 0.283913
-19.702 -10.4971 -1.60369
-19.4453 -10.6153 -1.58478
-16.174 -10.8055 0.60596
-19.9017 -10.4122 -2.18427
-17.1529 -10.8096 -0.204316
-17.1397 -10.902 -0.222541
-16.8755 -10.9164 -0.193681
-18.577 -10.8551 -1.33107
-18.5927 -10.8905 -1.40137
-18.4702 -10.8806 -1.31457
-19.9046 -10.432 -2.45313
-17.6439 -10.8662 -0.78814
-17.8413 -10.8164 -0.927213
-18.7216 -10.8236 -1.60294
-17.1347 -10.8258 -0.743867
-18.749 -10.8418 -2.06811
-18.3221 -10.944 -1.84585
-18.4059 -10.9845 -1.87709
-16.039 -11.1422 -0.189176
-17.2231 -10.6312 -1.31598
-16.0438 -11.2027 -0.744673
-15.8414 -11.2637 -0.696915
-18.5078 -10.8918 -2.75385
-16.1204 -11.1741 -0.994092
-16.0183 -11.1468 -1.04003
-15.9013 -11.2099 -1.01187
-16.2387 -11.0368 -1.30172
-17.0716 -10.673 -2.1699
-16.8557 -10.6914 -2.21525
-16.937 -10.7816 -2.51738
-16.8965 -10.7935 -2.48261
-15.9797 -11.0463 -2.02819
-15.8781 -11.0193 -2.21795
-16.2199 -10.9692 -2.56219
-15.9161 -11.0723 -2.54468
-14.7612 -12.1548 -3.07294
-18.5844 -9.99999 1.19368
-19.4341 -10.6041 0.80676
-19.4828 -10.5556 0.67568
-18.5373 -10.045 0.909023
-18.375 -10.0774 0.879164
-19.7806 -10.4852 0.1663
-19.6691 -10.4347 0.217442
-20.3815 -10.3043 -1.0224
-19.0957 -10.6731 -0.718684
-16.9939 -10.7504 0.222271
-20.321 -10.3399 -2.17053
-17.8774 -10.7866 -0.487591
-17.1808 -10.7946 -0.192355
-20.3532 -10.314 -2.52762
-17.4403 -10.8928 -0.414655
-17.6884 -10.7681 -0.610661
-17.6141 -10.8498 -0.544926
-16.9975 -10.8607 -0.185746
-16.9455 -10.8917 -0.224321
-17.1434 -10.8169 -0.40867
-17.2133 -10.8347 -0.488221
-17.2169 -10.8333 -0.530003
-17.1742 -10.8178 -0.601888
-17.1131 -10.8506 -0.534047
-17.1707 -10.8313 -0.897551
-17.0906 -10.8606 -0.965484
-18.7748 -10.7714 -2.26264
-18.8428 -10.8284 -2.38329
-18.4908 -10.8931 -2.14596
-15.9891 -11.2674 -0.45886
-17.4025 -10.7687 -2.33887
-17.0043 -10.6763 -2.20976
-16.1878 -11.1336 -1.92988
-17.2134 -10.487 -2.79072
-17.3284 -8.95552 1.63769
-20.1318 -10.2989 0.263858
-18.5549 -10.0248 0.903968
-20.0149 -10.3656 0.0432593
-19.3275 -10.6001 0.152251
-16.371 -8.96804 1.0232
-20.07 -10.3445 -1.00763
-19.0517 -10.6914 -0.376702
-19.3134 -10.6015 -0.901077
-17.2452 -10.4814 0.335247
-18.5375 -10.3647 -0.502984
-19.175 -10.6679 -0.873537
-18.0371 -10.766 -0.421654
-18.4057 -10.2961 -0.902073
-16.6951 -10.8111 -0.223849
-17.7173 -10.8484 -1.35767
-18.7813 -10.825 -2.23029
-18.8473 -10.8216 -2.4565
-15.9998 -11.2211 -0.768104
-15.6224 -11.5408 -0.537814
-15.5573 -11.5686 -0.811027
-16.4666 -11.0393 -1.76172
-15.4346 -11.541 -1.85935
-15.9523 -10.9833 -2.23618
-15.9029 -11.1371 -2.52507
-14.5951 -12.2207 -3.20696
-19.2276 -10.6481 0.168158
-18.5752 -10.4235 -0.0973932
-17.3765 -10.4421 0.500149
-19.417 -10.6236 -0.89764
-19.3911 -10.6116 -1.2645
-17.5742 -10.8698 -0.713843
-19.0426 -10.7977 -2.47685
-16.0542 -11.1817 -0.950654
-16.8158 -10.9106 -1.97749
-15.2441 -11.3973 -1.53785
-15.8378 -9.09595 1.2806
-18.5508 -10.3962 -0.597887
-17.5104 -10.8924 -1.47204
-17.728 -10.6244 -2.17969
-15.6201 -11.4958 -0.825935
-15.496 -11.5272 -0.875931
-17.2255 -10.7502 -0.307773
-17.8898 -10.6233 -1.99456
-16.509 -11.0858 -1.43647
-19.496 -10.5042 0.745044
-18.5045 -10.4067 -0.220207
-16.7697 -11.0917 -0.590436
-19.3839 -10.6357 -0.62143
-15.9002 -11.1126 -1.95817
-15.1676 -11.5788 -1.34249
-14.5467 -12.2262 -3.23497
-15.201 -12.0127 -2.87589
-17.9038 -11.1158 -2.8578
-16.8557 -10.7639 -2.63383
-17.8822 -11.1108 -2.7485
-19.5557 -10.5796 -2.55049
-18.9302 -10.7676 -2.55779
-18.9448 -10.7684 -2.54884
-18.1555 -11.0444 -2.50787
-19.4873 -10.6031 -2.44004
-17.0376 -10.658 -2.23722
-20.2462 -10.3209 -2.23753
-20.2232 -10.3748 -2.19929
-18.5072 -10.8728 -2.12094
-19.9123 -10.397 -2.09486
-20.4109 -10.223 -1.97941
-19.1817 -10.7328 -1.90929
-19.0488 -10.7672 -1.8857
-19.7396 -10.5346 -1.91256
-19.7337 -10.5224 -1.87601
-20.2753 -10.2802 -1.79597
-19.5135 -10.554 -1.6377
-19.292 -10.6527 -1.64257
-20.3995 -10.2824 -1.66934
-18.3245 -10.967 -1.63974
-20.2085 -10.3141 -1.56801
-18.5281 -10.8961 -1.36495
-18.5474 -10.8843 -1.31094
-18.8658 -10.7929 -1.31959
-20.3618 -10.3312 -1.34501
-20.064 -10.3926 -0.969583
-18.0742 -10.7499 -0.85941
-15.8707 -11.2466 -0.72755
-17.0664 -10.8606 -0.744826
-15.9154 -11.2563 -0.718941
-16.5853 -11.0472 -0.644601
-16.5573 -11.0402 -0.590517
-19.9475 -10.4244 -0.636087
-18.5527 -10.4084 -0.556185
-19.63 -10.508 -0.551565
-17.7473 -10.7126 -0.458515
-17.6779 -10.7624 -0.468607
-17.6689 -10.7645 -0.455227
-16.4843 -10.8116 -0.424603
-19.776 -10.4866 -0.318577
-20.3486 -10.2876 -0.336762
-19.4363 -10.5378 -0.27847
-19.4271 -10.588 -0.278428
-17.1781 -10.8452 -0.194198
-16.9028 -10.9007 -0.213744
-17.1832 -10.8191 -0.19029
-16.5243 -10.8869 -0.160005
-17.1794 -10.8407 -0.169311
-18.4246 -10.3978 -0.0914623
-19.519 -10.5648 -0.135465
-18.5314 -10.4033 -0.0258901
-19.7668 -10.4311 -0.0167684
-19.213 -10.6379 0.019276
-19.3155 -10.6095 0.0440443
-19.4553 -10.5857 0.139528
-16.9635 -10.6582 0.271721
-20.1643 -10.3187 0.316643
-18.5323 -10.0424 0.290906
-18.6464 -10.005 0.335315
-18.0513 -10.2418 0.378829
-18.0884 -10.1653 0.411425
-19.4168 -10.6014 0.465206
-18.481 -10.0588 0.448189
-17.9637 -10.2287 0.508857
-16.2483 -10.8094 0.507214
-20.2397 -10.303 0.496899
-19.5345 -10.5652 0.6396
-19.5345 -10.5472 0.646818
-19.6236 -10.4927 0.630641
-20.3012 -10.2703 0.657953
-19.2968 -10.6206 0.63337
-20.3533 -10.2595 0.832541
-19.6343 -10.5159 0.887621
-19.6299 -10.5722 0.88045
-19.558 -10.5508 0.888879
-19.667 -10.4985 0.9149
-19.9995 -10.3657 0.982876
-19.9061 -10.4079 1.05255
-19.7859 -10.4441 1.1637
-20.0003 -10.3966 1.18156
-19.6224 -10.526 1.19712
-19.4098 -10.5976 1.21342
-16.3374 -8.90083 0.935258
-17.4169 -9.0568 1.06062
-18.7563 -10.8312 -2.38998
-18.4977 -10.9408 -2.20014
-16.7287 -10.9865 -1.97421
-18.8615 -10.785 -2.15154
-17.7979 -10.6589 -1.91248
-16.5446 -10.9973 -1.87831
-16.6589 -11.026 -1.82059
-19.9448 -10.4353 -1.93853
-16.8093 -10.9124 -1.6893
-16.8064 -11.0045 -1.63227
-16.813 -10.9269 -1.56224
-18.276 -10.9654 -1.63281
-20.3233 -10.2935 -1.48682
-20.3662 -10.2822 -1.51174
-16.1826 -11.022 -1.29821
-18.6523 -10.8439 -1.29751
-18.5759 -10.8829 -1.33685
-17.1686 -10.8027 -0.80481
-17.2777 -10.778 -0.759628
-15.8563 -11.2409 -0.726793
-19.1452 -10.6665 -0.66949
-17.7643 -10.8133 -0.650358
-17.7231 -10.765 -0.444634
-16.5495 -10.7578 -0.277204
-19.7845 -10.4862 -0.338241
-19.92 -10.4368 -0.310473
-19.3788 -10.5654 -0.258119
-16.0403 -11.1779 -0.198325
-17.1884 -10.8631 -0.15729
-18.5634 -10.4179 -0.101132
-19.7061 -10.5543 -0.0765931
-17.1004 -10.8518 -0.0543735
-15.9974 -11.2007 -0.0287016
-18.5253 -10.4071 -0.0114206
-19.928 -10.4091 0.044418
-19.5982 -10.5031 0.146246
-17.0025 -10.7248 0.277092
-20.1844 -10.2931 0.324478
-17.1295 -10.5427 0.350256
-16.4769 -10.76 0.365211
-15.8144 -10.9849 0.422063
-17.6659 -10.3582 0.442986
-18.3335 -10.0993 0.377922
-19.3148 -10.605 0.449714
-19.3976 -10.5588 0.437081
-19.4869 -10.5961 0.451469
-19.9872 -10.3676 0.445766
-16.1628 -10.8717 0.485692
-16.7492 -10.6244 0.486575
-16.6404 -10.6842 0.489243
-18.5075 -10.0684 0.55021
-19.7618 -10.4498 0.66614
-20.1673 -10.2987 0.900905
-20.1461 -10.3504 0.913172
-19.9424 -10.3903 1.0603
-20.0018 -10.3481 1.15727
-19.4395 -10.6065 1.18826
-19.8452 -10.417 1.23707
-19.6369 -10.5122 1.20486
-16.7307 -8.81999 1.04273
-15.958 -9.05547 1.14281
-19.5284 -10.6122 -2.55088
-20.2804 -10.2853 -2.41187
-16.01 -11.0442 -2.06347
-18.5637 -10.9041 -1.89625
-18.4875 -10.9058 -1.53877
